# .PCD v0.7 - Point Cloud Data file format
VERSION 0.7
FIELDS x y z rgb normal_x normal_y normal_z curvature
SIZE 4 4 4 4 4 4 4 4
TYPE F F F F F F F F
COUNT 1 1 1 1 1 1 1 1
WIDTH 1020
HEIGHT 1
VIEWPOINT 0 0 0 1 0 0 0
POINTS 1020
DATA ascii
6.6038628 51.89867 1.4011376 2.3048907e-39 0 0 0 0
8.3297787 52.239552 1.6094079 2.3048907e-39 0 0 0 0
8.5244846 52.225761 1.6094079 2.3048907e-39 0 0 0 0
13.426024 52.358826 0.96644044 2.3048907e-39 0 0 0 0
13.614271 52.32798 0.96644044 2.3048907e-39 0 0 0 0
8.2896967 68.284348 1.5195107 2.3048907e-39 0 0 0 0
8.5409117 68.236145 1.5195107 2.3048907e-39 0 0 0 0
10.315218 68.31797 1.5195107 2.3048907e-39 0 0 0 0
10.54923 68.294411 1.3786643 2.3048907e-39 0 0 0 0
-61.365376 70.833794 30 2.3048907e-39 0 0 0 0
-61.55838 71.006477 30 2.3048907e-39 0 0 0 0
-61.291668 71.247574 30 2.3048907e-39 0 0 0 0
-60.327621 71.260506 30 2.3048907e-39 0 0 0 0
-59.860237 71.252945 30 2.3048907e-39 0 0 0 0
-59.4646 71.308853 30 2.3048907e-39 0 0 0 0
-58.83868 71.294777 30 2.3048907e-39 0 0 0 0
-58.178909 71.324394 30 2.3048907e-39 0 0 0 0
-57.725372 71.285675 30 2.3048907e-39 0 0 0 0
-57.182587 71.333633 30 2.3048907e-39 0 0 0 0
-56.239239 71.261955 8.5742836 2.3048907e-39 0 0 0 0
-55.788414 71.369804 8.5742836 2.3048907e-39 0 0 0 0
-55.489056 71.455818 8.5742836 2.3048907e-39 0 0 0 0
-36.625717 71.457733 6.7679424 2.3048907e-39 0 0 0 0
-36.280037 71.465218 11.743506 2.3048907e-39 0 0 0 0
-35.803318 71.467888 11.743506 2.3048907e-39 0 0 0 0
-35.302441 71.473129 13.041743 2.3048907e-39 0 0 0 0
-34.795219 71.471252 13.041743 2.3048907e-39 0 0 0 0
-34.247959 71.47348 13.041743 2.3048907e-39 0 0 0 0
-33.728416 71.489151 14.393106 2.3048907e-39 0 0 0 0
-33.203102 71.479897 14.393106 2.3048907e-39 0 0 0 0
-32.536469 71.491806 14.393106 2.3048907e-39 0 0 0 0
-32.190334 71.489471 14.393106 2.3048907e-39 0 0 0 0
-31.810585 71.487411 14.393106 2.3048907e-39 0 0 0 0
-30.620037 71.492393 14.36489 2.3048907e-39 0 0 0 0
-55.544464 71.806709 8.6297255 2.3048907e-39 0 0 0 0
-55.427158 71.907402 8.6297255 2.3048907e-39 0 0 0 0
-36.65292 71.558914 20.005606 2.3048907e-39 0 0 0 0
-36.240974 71.528641 20.005606 2.3048907e-39 0 0 0 0
-35.744034 71.539833 13.041743 2.3048907e-39 0 0 0 0
-35.231884 71.549828 13.041743 2.3048907e-39 0 0 0 0
-34.77198 71.546875 14.393106 2.3048907e-39 0 0 0 0
-34.238979 71.53952 14.393106 2.3048907e-39 0 0 0 0
-33.776669 71.539932 14.393106 2.3048907e-39 0 0 0 0
-33.228775 71.553993 14.393106 2.3048907e-39 0 0 0 0
-32.778561 71.553177 14.393106 2.3048907e-39 0 0 0 0
-32.24374 71.560959 14.393106 2.3048907e-39 0 0 0 0
-31.758001 71.549248 14.393106 2.3048907e-39 0 0 0 0
-31.234879 71.574165 14.393106 2.3048907e-39 0 0 0 0
-30.761993 71.589767 14.393106 2.3048907e-39 0 0 0 0
-30.250141 71.592163 14.36489 2.3048907e-39 0 0 0 0
-29.726337 71.617241 14.540545 2.3048907e-39 0 0 0 0
-29.408936 71.742973 14.540545 2.3048907e-39 0 0 0 0
13.95389 71.893867 11.507789 2.3048907e-39 0 0 0 0
14.279464 71.815254 11.533405 2.3048907e-39 0 0 0 0
14.78179 71.8162 11.63706 2.3048907e-39 0 0 0 0
15.284489 71.815498 11.714406 2.3048907e-39 0 0 0 0
15.75114 71.819679 11.761523 2.3048907e-39 0 0 0 0
16.21912 71.817001 11.761523 2.3048907e-39 0 0 0 0
16.73056 71.817818 11.761523 2.3048907e-39 0 0 0 0
17.267056 71.823875 11.761523 2.3048907e-39 0 0 0 0
17.786594 71.827919 11.761523 2.3048907e-39 0 0 0 0
18.294409 71.842232 11.761523 2.3048907e-39 0 0 0 0
18.749933 71.840782 11.761523 2.3048907e-39 0 0 0 0
19.195087 71.844589 11.761523 2.3048907e-39 0 0 0 0
19.582245 71.837662 11.761523 2.3048907e-39 0 0 0 0
-29.500477 72.068298 14.540545 2.3048907e-39 0 0 0 0
-29.385742 72.26516 14.540545 2.3048907e-39 0 0 0 0
14.114868 72.428185 11.507789 2.3048907e-39 0 0 0 0
15.222079 72.009743 11.63706 2.3048907e-39 0 0 0 0
17.825706 72.011513 11.761523 2.3048907e-39 0 0 0 0
19.077696 72.000175 11.761523 2.3048907e-39 0 0 0 0
-29.524677 72.664597 14.540545 2.3048907e-39 0 0 0 0
-29.391409 72.780037 14.540545 2.3048907e-39 0 0 0 0
14.05557 72.75386 11.507789 2.3048907e-39 0 0 0 0
-29.549438 73.472412 14.540545 2.3048907e-39 0 0 0 0
-29.402449 73.243797 14.540545 2.3048907e-39 0 0 0 0
14.03194 73.054756 11.352029 2.3048907e-39 0 0 0 0
-55.577026 73.62532 14.332094 2.3048907e-39 0 0 0 0
-29.401772 73.734894 14.540545 2.3048907e-39 0 0 0 0
-55.565659 74.189041 14.378886 2.3048907e-39 0 0 0 0
-53.378826 74.196564 14.395667 2.3048907e-39 0 0 0 0
-52.563107 74.222565 14.395667 2.3048907e-39 0 0 0 0
-52.212597 74.173103 14.395667 2.3048907e-39 0 0 0 0
-51.694118 74.201187 14.395667 2.3048907e-39 0 0 0 0
-51.311993 74.251976 14.617045 2.3048907e-39 0 0 0 0
-48.025433 74.258011 14.617045 2.3048907e-39 0 0 0 0
-47.671654 74.325241 14.617045 2.3048907e-39 0 0 0 0
-46.528179 74.339485 14.568799 2.3048907e-39 0 0 0 0
-46.119717 74.317535 14.511211 2.3048907e-39 0 0 0 0
-29.606739 74.195923 14.540545 2.3048907e-39 0 0 0 0
-29.43854 74.313347 14.540545 2.3048907e-39 0 0 0 0
-29.52187 74.786667 14.540545 2.3048907e-39 0 0 0 0
-29.380793 74.679276 14.540545 2.3048907e-39 0 0 0 0
13.965396 74.753738 10.894499 2.3048907e-39 0 0 0 0
14.02763 74.729134 10.894499 2.3048907e-39 0 0 0 0
-29.41024 75.257339 14.540545 2.3048907e-39 0 0 0 0
14.022061 75.02449 11.506337 2.3048907e-39 0 0 0 0
-29.390747 75.751877 14.540545 2.3048907e-39 0 0 0 0
-29.531948 76.156204 14.461525 2.3048907e-39 0 0 0 0
-29.383881 76.303024 14.461525 2.3048907e-39 0 0 0 0
13.959599 76.393066 12.452441 2.3048907e-39 0 0 0 0
-29.535122 76.870285 14.461525 2.3048907e-39 0 0 0 0
-29.430189 76.757141 14.461525 2.3048907e-39 0 0 0 0
13.957897 76.560959 12.452441 2.3048907e-39 0 0 0 0
-29.427229 77.262314 14.461525 2.3048907e-39 0 0 0 0
14.312431 77.479538 12.479527 2.3048907e-39 0 0 0 0
-29.403189 77.836113 14.198201 2.3048907e-39 0 0 0 0
13.916201 77.668365 12.492448 2.3048907e-39 0 0 0 0
14.231285 77.637466 12.510932 2.3048907e-39 0 0 0 0
14.53194 77.582466 12.536661 2.3048907e-39 0 0 0 0
-29.43553 78.138908 14.334428 2.3048907e-39 0 0 0 0
13.969099 78.379829 12.458689 2.3048907e-39 0 0 0 0
14.053918 78.321793 12.479527 2.3048907e-39 0 0 0 0
-29.407518 78.744118 14.334428 2.3048907e-39 0 0 0 0
13.958941 78.6791 12.458689 2.3048907e-39 0 0 0 0
14.052193 78.681801 12.479527 2.3048907e-39 0 0 0 0
-29.426075 79.336998 14.334428 2.3048907e-39 0 0 0 0
-29.46084 79.737762 14.334428 2.3048907e-39 0 0 0 0
-29.657074 80.098114 14.334428 2.3048907e-39 0 0 0 0
-29.416767 80.327065 14.334428 2.3048907e-39 0 0 0 0
14.063324 80.242821 12.479527 2.3048907e-39 0 0 0 0
-29.423653 80.69706 14.334428 2.3048907e-39 0 0 0 0
13.943053 80.744102 12.458689 2.3048907e-39 0 0 0 0
14.044838 80.637978 12.479527 2.3048907e-39 0 0 0 0
-29.542021 81.405212 14.392703 2.3048907e-39 0 0 0 0
-29.428131 81.231445 14.392703 2.3048907e-39 0 0 0 0
-29.412199 81.792725 14.392703 2.3048907e-39 0 0 0 0
-29.454197 82.227814 14.392703 2.3048907e-39 0 0 0 0
-29.422928 82.74305 14.392703 2.3048907e-39 0 0 0 0
13.930781 82.841362 13.307679 2.3048907e-39 0 0 0 0
-29.519354 83.18058 14.392703 2.3048907e-39 0 0 0 0
-29.457783 83.162056 14.392703 2.3048907e-39 0 0 0 0
13.94281 83.083931 13.307679 2.3048907e-39 0 0 0 0
-29.418457 83.787849 14.392703 2.3048907e-39 0 0 0 0
-29.404058 84.341248 14.392703 2.3048907e-39 0 0 0 0
13.84278 84.069138 13.307679 2.3048907e-39 0 0 0 0
-29.584858 84.772354 14.392703 2.3048907e-39 0 0 0 0
-29.41279 84.700394 14.392703 2.3048907e-39 0 0 0 0
-29.423786 85.316063 14.392703 2.3048907e-39 0 0 0 0
13.937102 85.311012 13.307679 2.3048907e-39 0 0 0 0
14.03112 85.315903 13.307679 2.3048907e-39 0 0 0 0
-29.427313 85.574936 13.918715 2.3048907e-39 0 0 0 0
13.94853 85.672241 13.307679 2.3048907e-39 0 0 0 0
13.982096 87.317993 12.323936 2.3048907e-39 0 0 0 0
13.910531 87.702202 10.596666 2.3048907e-39 0 0 0 0
-30.671627 88.936081 14.4539 2.3048907e-39 0 0 0 0
-30.204306 88.892418 14.4539 2.3048907e-39 0 0 0 0
-29.756508 88.903198 14.4539 2.3048907e-39 0 0 0 0
-29.335274 88.996803 14.4539 2.3048907e-39 0 0 0 0
-30.708876 89.022293 14.452638 2.3048907e-39 0 0 0 0
-30.228954 89.027634 14.4539 2.3048907e-39 0 0 0 0
-29.665909 89.033798 14.4539 2.3048907e-39 0 0 0 0
-29.388826 89.248306 14.4539 2.3048907e-39 0 0 0 0
-29.716099 89.743385 14.4539 2.3048907e-39 0 0 0 0
-29.465509 89.68026 14.4539 2.3048907e-39 0 0 0 0
-29.593891 90.081161 14.4539 2.3048907e-39 0 0 0 0
-29.406872 90.256218 14.4539 2.3048907e-39 0 0 0 0
13.835285 90.38295 11.671908 2.3048907e-39 0 0 0 0
-29.755356 90.790894 14.4539 2.3048907e-39 0 0 0 0
-29.455585 90.607468 14.4539 2.3048907e-39 0 0 0 0
-29.43088 91.350273 14.452638 2.3048907e-39 0 0 0 0
-29.727806 91.776398 14.407719 2.3048907e-39 0 0 0 0
-29.475904 91.724113 14.407719 2.3048907e-39 0 0 0 0
-29.403547 92.308594 14.407719 2.3048907e-39 0 0 0 0
-29.711578 92.862785 14.214383 2.3048907e-39 0 0 0 0
-29.475317 92.741226 14.214383 2.3048907e-39 0 0 0 0
-29.718616 93.077042 14.214383 2.3048907e-39 0 0 0 0
-29.423239 93.390984 14.214383 2.3048907e-39 0 0 0 0
-29.673164 93.878029 11.268521 2.3048907e-39 0 0 0 0
-29.486536 93.668053 11.268521 2.3048907e-39 0 0 0 0
-29.786371 94.08239 11.268521 2.3048907e-39 0 0 0 0
-29.557728 94.763344 14.067143 2.3048907e-39 0 0 0 0
-29.471157 94.510193 11.268521 2.3048907e-39 0 0 0 0
13.803209 99.572189 4.9299974 2.3048907e-39 0 0 0 0
9.9953766 104.21808 1.6137912 2.3048907e-39 0 0 0 0
10.259336 104.24175 1.6137912 2.3048907e-39 0 0 0 0
10.459609 120.73999 30 2.3048907e-39 0 0 0 0
10.859362 120.76822 30 2.3048907e-39 0 0 0 0
11.282352 120.82877 30 2.3048907e-39 0 0 0 0
11.724524 120.85161 30 2.3048907e-39 0 0 0 0
12.229946 120.78534 30 2.3048907e-39 0 0 0 0
12.815319 120.75552 30 2.3048907e-39 0 0 0 0
13.404858 120.83846 30 2.3048907e-39 0 0 0 0
13.894308 120.9813 30 2.3048907e-39 0 0 0 0
10.313931 121.38427 30 2.3048907e-39 0 0 0 0
10.759148 121.3408 30 2.3048907e-39 0 0 0 0
11.208427 121.29826 30 2.3048907e-39 0 0 0 0
11.620181 121.28635 30 2.3048907e-39 0 0 0 0
12.176435 121.33215 30 2.3048907e-39 0 0 0 0
12.675799 121.30704 30 2.3048907e-39 0 0 0 0
13.423186 121.14252 30 2.3048907e-39 0 0 0 0
13.879594 121.30413 30 2.3048907e-39 0 0 0 0
14.298465 121.27106 30 2.3048907e-39 0 0 0 0
14.708163 121.42047 19.130835 2.3048907e-39 0 0 0 0
15.10787 121.16551 5.7094193 2.3048907e-39 0 0 0 0
15.62795 121.43012 7.9412193 2.3048907e-39 0 0 0 0
9.4671955 121.72765 30 2.3048907e-39 0 0 0 0
9.8301334 121.71304 30 2.3048907e-39 0 0 0 0
10.337962 121.6897 30 2.3048907e-39 0 0 0 0
10.785974 121.71024 30 2.3048907e-39 0 0 0 0
11.227221 121.68501 30 2.3048907e-39 0 0 0 0
11.677293 121.73445 30 2.3048907e-39 0 0 0 0
12.185408 121.69679 30 2.3048907e-39 0 0 0 0
12.789777 121.80413 30 2.3048907e-39 0 0 0 0
13.27955 121.73019 30 2.3048907e-39 0 0 0 0
13.75413 121.76239 30 2.3048907e-39 0 0 0 0
14.28117 121.77805 30 2.3048907e-39 0 0 0 0
14.726482 121.67729 11.931089 2.3048907e-39 0 0 0 0
15.194426 121.82547 11.550666 2.3048907e-39 0 0 0 0
15.644241 121.77525 11.572307 2.3048907e-39 0 0 0 0
9.5734138 122.1882 30 2.3048907e-39 0 0 0 0
11.237675 122.05214 30 2.3048907e-39 0 0 0 0
13.83473 123.88858 11.931089 2.3048907e-39 0 0 0 0
14.196161 123.76181 11.931089 2.3048907e-39 0 0 0 0
14.666347 123.77399 11.931089 2.3048907e-39 0 0 0 0
15.248662 123.8189 11.931089 2.3048907e-39 0 0 0 0
15.820712 123.81251 11.931089 2.3048907e-39 0 0 0 0
16.373791 123.71358 11.931089 2.3048907e-39 0 0 0 0
13.694398 124.1583 11.931089 2.3048907e-39 0 0 0 0
14.045338 124.07362 11.931089 2.3048907e-39 0 0 0 0
4.7021356 137.71292 30 2.3048907e-39 0 0 0 0
5.1499691 137.7256 30 2.3048907e-39 0 0 0 0
5.1469231 138.02025 30 2.3048907e-39 0 0 0 0
-6.5522666 -14.322761 0 2.3509886e-38 0 0 0 0
-6.4922662 -14.322734 0 2.3509886e-38 0 0 0 0
-6.5522928 -14.262761 0 2.3509886e-38 0 0 0 0
-6.4922924 -14.262734 0 2.3509886e-38 0 0 0 0
-12.152353 -14.125229 0 2.3509886e-38 0 0 0 0
-12.092353 -14.125202 0 2.3509886e-38 0 0 0 0
-12.012353 -14.125167 0 2.3509886e-38 0 0 0 0
-9.2123537 -14.123933 0 2.3509886e-38 0 0 0 0
-8.5923538 -14.12366 0 2.3509886e-38 0 0 0 0
-8.4923544 -14.123615 0 2.3509886e-38 0 0 0 0
-6.952354 -14.122937 0 2.3509886e-38 0 0 0 0
-6.892354 -14.12291 0 2.3509886e-38 0 0 0 0
-6.7923365 -14.162867 0 2.3509886e-38 0 0 0 0
-6.6923366 -14.162822 0 2.3509886e-38 0 0 0 0
-0.77634442 -14.144216 0 2.3509886e-38 0 0 0 0
-0.69233739 -14.160177 0 2.3509886e-38 0 0 0 0
-0.59233743 -14.160134 0 2.3509886e-38 0 0 0 0
-0.47233742 -14.160083 0 2.3509886e-38 0 0 0 0
-0.38234186 -14.150042 0 2.3509886e-38 0 0 0 0
-0.29235509 -14.120003 0 2.3509886e-38 0 0 0 0
-12.15238 -14.065228 0 2.3509886e-38 0 0 0 0
-12.09238 -14.065202 0 2.3509886e-38 0 0 0 0
-12.012381 -14.065166 0 2.3509886e-38 0 0 0 0
-9.2123804 -14.063932 0 2.3509886e-38 0 0 0 0
-8.5923796 -14.063661 0 2.3509886e-38 0 0 0 0
-8.4923801 -14.063615 0 2.3509886e-38 0 0 0 0
-6.9523807 -14.062937 0 2.3509886e-38 0 0 0 0
-6.8923802 -14.06291 0 2.3509886e-38 0 0 0 0
-6.7923808 -14.062867 0 2.3509886e-38 0 0 0 0
-6.6923814 -14.062822 0 2.3509886e-38 0 0 0 0
-0.79238147 -14.060224 0 2.3509886e-38 0 0 0 0
-0.69238144 -14.060178 0 2.3509886e-38 0 0 0 0
-0.59238148 -14.060135 0 2.3509886e-38 0 0 0 0
-0.4723815 -14.060082 0 2.3509886e-38 0 0 0 0
-0.37238151 -14.060038 0 2.3509886e-38 0 0 0 0
-0.29238155 -14.060002 0 2.3509886e-38 0 0 0 0
-15.552425 -13.966726 0 2.3509886e-38 0 0 0 0
-15.492424 -13.966701 0 2.3509886e-38 0 0 0 0
-12.952441 -13.925581 0 2.3509886e-38 0 0 0 0
-12.892442 -13.925554 0 2.3509886e-38 0 0 0 0
-12.792441 -13.925511 0 2.3509886e-38 0 0 0 0
-12.692442 -13.925467 0 2.3509886e-38 0 0 0 0
-12.352442 -13.925317 0 2.3509886e-38 0 0 0 0
-12.292442 -13.92529 0 2.3509886e-38 0 0 0 0
-12.176432 -13.94924 0 2.3509886e-38 0 0 0 0
-12.092423 -13.965202 0 2.3509886e-38 0 0 0 0
-12.012424 -13.965166 0 2.3509886e-38 0 0 0 0
-11.192441 -13.924807 0 2.3509886e-38 0 0 0 0
-11.092442 -13.924762 0 2.3509886e-38 0 0 0 0
-10.612442 -13.92455 0 2.3509886e-38 0 0 0 0
-8.9924421 -13.923837 0 2.3509886e-38 0 0 0 0
-8.8924427 -13.923792 0 2.3509886e-38 0 0 0 0
-8.7764311 -13.947742 0 2.3509886e-38 0 0 0 0
-8.6924248 -13.963704 0 2.3509886e-38 0 0 0 0
-8.5924244 -13.963659 0 2.3509886e-38 0 0 0 0
-8.492425 -13.963615 0 2.3509886e-38 0 0 0 0
-7.7524424 -13.923289 0 2.3509886e-38 0 0 0 0
-7.6924424 -13.923264 0 2.3509886e-38 0 0 0 0
-7.592443 -13.923221 0 2.3509886e-38 0 0 0 0
-7.4924421 -13.923175 0 2.3509886e-38 0 0 0 0
-7.3924251 -13.96313 0 2.3509886e-38 0 0 0 0
-7.2924247 -13.963086 0 2.3509886e-38 0 0 0 0
-7.1924253 -13.963042 0 2.3509886e-38 0 0 0 0
-7.0924253 -13.962999 0 2.3509886e-38 0 0 0 0
-6.9924254 -13.962954 0 2.3509886e-38 0 0 0 0
-6.8924246 -13.96291 0 2.3509886e-38 0 0 0 0
-6.7924247 -13.962867 0 2.3509886e-38 0 0 0 0
-6.6924248 -13.962822 0 2.3509886e-38 0 0 0 0
-6.6124425 -13.922788 0 2.3509886e-38 0 0 0 0
-5.1924429 -13.922163 0 2.3509886e-38 0 0 0 0
-5.092443 -13.922117 0 2.3509886e-38 0 0 0 0
-4.9924431 -13.922074 0 2.3509886e-38 0 0 0 0
-4.8924427 -13.922029 0 2.3509886e-38 0 0 0 0
-4.7924428 -13.921987 0 2.3509886e-38 0 0 0 0
-4.6924429 -13.921942 0 2.3509886e-38 0 0 0 0
-4.1924429 -13.921722 0 2.3509886e-38 0 0 0 0
-4.092443 -13.921677 0 2.3509886e-38 0 0 0 0
-3.9924252 -13.961632 0 2.3509886e-38 0 0 0 0
-3.8924255 -13.961589 0 2.3509886e-38 0 0 0 0
-3.8038559 -13.955834 0 2.3509886e-38 0 0 0 0
-3.6924429 -13.921501 0 2.3509886e-38 0 0 0 0
-2.1524429 -13.920822 0 2.3509886e-38 0 0 0 0
-2.092443 -13.920795 0 2.3509886e-38 0 0 0 0
-1.9924431 -13.920753 0 2.3509886e-38 0 0 0 0
-1.8924431 -13.920708 0 2.3509886e-38 0 0 0 0
-1.812443 -13.920672 0 2.3509886e-38 0 0 0 0
-1.1524431 -13.920382 0 2.3509886e-38 0 0 0 0
-1.0924431 -13.920355 0 2.3509886e-38 0 0 0 0
-0.9924255 -13.960311 0 2.3509886e-38 0 0 0 0
-0.89242554 -13.960267 0 2.3509886e-38 0 0 0 0
-0.79242551 -13.960223 0 2.3509886e-38 0 0 0 0
-0.69242555 -13.960178 0 2.3509886e-38 0 0 0 0
-0.59242553 -13.960135 0 2.3509886e-38 0 0 0 0
-0.47242555 -13.960081 0 2.3509886e-38 0 0 0 0
-0.37242559 -13.960038 0 2.3509886e-38 0 0 0 0
-0.27242562 -13.959993 0 2.3509886e-38 0 0 0 0
-0.17242558 -13.959949 0 2.3509886e-38 0 0 0 0
-0.072425656 -13.959905 0 2.3509886e-38 0 0 0 0
0.027574414 -13.959861 0 2.3509886e-38 0 0 0 0
0.12757437 -13.959816 0 2.3509886e-38 0 0 0 0
0.22757444 -13.959772 0 2.3509886e-38 0 0 0 0
0.30757436 -13.959738 0 2.3509886e-38 0 0 0 0
0.40757433 -13.959693 0 2.3509886e-38 0 0 0 0
0.5161432 -13.953932 0 2.3509886e-38 0 0 0 0
0.62755668 -13.919597 0 2.3509886e-38 0 0 0 0
0.70755661 -13.919562 0 2.3509886e-38 0 0 0 0
0.78755665 -13.919527 0 2.3509886e-38 0 0 0 0
1.8475831 -13.979059 0 2.3509886e-38 0 0 0 0
1.907583 -13.979033 0 2.3509886e-38 0 0 0 0
2.0075564 -13.91899 0 2.3509886e-38 0 0 0 0
2.1075566 -13.918945 0 2.3509886e-38 0 0 0 0
2.2075565 -13.918901 0 2.3509886e-38 0 0 0 0
2.3075566 -13.918857 0 2.3509886e-38 0 0 0 0
2.4075565 -13.918814 0 2.3509886e-38 0 0 0 0
2.5075564 -13.918769 0 2.3509886e-38 0 0 0 0
3.8075564 -13.918197 0 2.3509886e-38 0 0 0 0
3.9075563 -13.918152 0 2.3509886e-38 0 0 0 0
4.0075564 -13.918109 0 2.3509886e-38 0 0 0 0
4.1075563 -13.918064 0 2.3509886e-38 0 0 0 0
-15.552468 -13.866728 0 2.3509886e-38 0 0 0 0
-15.492468 -13.866701 0 2.3509886e-38 0 0 0 0
-12.952468 -13.865582 0 2.3509886e-38 0 0 0 0
-12.892468 -13.865555 0 2.3509886e-38 0 0 0 0
-12.792468 -13.86551 0 2.3509886e-38 0 0 0 0
-12.692469 -13.865467 0 2.3509886e-38 0 0 0 0
-12.352468 -13.865317 0 2.3509886e-38 0 0 0 0
-12.292468 -13.865291 0 2.3509886e-38 0 0 0 0
-12.192469 -13.865246 0 2.3509886e-38 0 0 0 0
-12.092467 -13.865202 0 2.3509886e-38 0 0 0 0
-12.012467 -13.865168 0 2.3509886e-38 0 0 0 0
-11.192468 -13.864806 0 2.3509886e-38 0 0 0 0
-11.092467 -13.864762 0 2.3509886e-38 0 0 0 0
-10.612468 -13.864551 0 2.3509886e-38 0 0 0 0
-8.9924698 -13.863835 0 2.3509886e-38 0 0 0 0
-8.8924685 -13.863792 0 2.3509886e-38 0 0 0 0
-8.792469 -13.863748 0 2.3509886e-38 0 0 0 0
-8.6924686 -13.863704 0 2.3509886e-38 0 0 0 0
-8.5924683 -13.863661 0 2.3509886e-38 0 0 0 0
-8.4924688 -13.863616 0 2.3509886e-38 0 0 0 0
-7.7524686 -13.86329 0 2.3509886e-38 0 0 0 0
-7.6924686 -13.863264 0 2.3509886e-38 0 0 0 0
-7.5924692 -13.863219 0 2.3509886e-38 0 0 0 0
-7.4924688 -13.863175 0 2.3509886e-38 0 0 0 0
-7.3924689 -13.863131 0 2.3509886e-38 0 0 0 0
-7.292469 -13.863088 0 2.3509886e-38 0 0 0 0
-7.1924686 -13.863044 0 2.3509886e-38 0 0 0 0
-7.0924692 -13.863 0 2.3509886e-38 0 0 0 0
-6.9924684 -13.862955 0 2.3509886e-38 0 0 0 0
-6.8924689 -13.862911 0 2.3509886e-38 0 0 0 0
-6.792469 -13.862867 0 2.3509886e-38 0 0 0 0
-6.6924691 -13.862823 0 2.3509886e-38 0 0 0 0
-6.6124692 -13.862788 0 2.3509886e-38 0 0 0 0
-5.1924691 -13.862162 0 2.3509886e-38 0 0 0 0
-5.0924692 -13.862117 0 2.3509886e-38 0 0 0 0
-4.9924693 -13.862074 0 2.3509886e-38 0 0 0 0
-4.8924689 -13.86203 0 2.3509886e-38 0 0 0 0
-4.792469 -13.861986 0 2.3509886e-38 0 0 0 0
-4.6924691 -13.861942 0 2.3509886e-38 0 0 0 0
-4.1924696 -13.861721 0 2.3509886e-38 0 0 0 0
-4.0924692 -13.861677 0 2.3509886e-38 0 0 0 0
-3.9924691 -13.861632 0 2.3509886e-38 0 0 0 0
-3.8924692 -13.861589 0 2.3509886e-38 0 0 0 0
-3.7924693 -13.861545 0 2.3509886e-38 0 0 0 0
-3.6924694 -13.861502 0 2.3509886e-38 0 0 0 0
-2.1524694 -13.860823 0 2.3509886e-38 0 0 0 0
-2.0924695 -13.860796 0 2.3509886e-38 0 0 0 0
-1.9924695 -13.860752 0 2.3509886e-38 0 0 0 0
-1.8924695 -13.860708 0 2.3509886e-38 0 0 0 0
-1.8124695 -13.860673 0 2.3509886e-38 0 0 0 0
-1.1524695 -13.860382 0 2.3509886e-38 0 0 0 0
-1.0924696 -13.860355 0 2.3509886e-38 0 0 0 0
-0.99246955 -13.860311 0 2.3509886e-38 0 0 0 0
-0.89246958 -13.860268 0 2.3509886e-38 0 0 0 0
-0.79246956 -13.860223 0 2.3509886e-38 0 0 0 0
-0.6924696 -13.860178 0 2.3509886e-38 0 0 0 0
-0.59246963 -13.860134 0 2.3509886e-38 0 0 0 0
-0.47246966 -13.860082 0 2.3509886e-38 0 0 0 0
-0.37246963 -13.860039 0 2.3509886e-38 0 0 0 0
-0.27246967 -13.859993 0 2.3509886e-38 0 0 0 0
-0.17246968 -13.859949 0 2.3509886e-38 0 0 0 0
-0.072469726 -13.859905 0 2.3509886e-38 0 0 0 0
0.02753029 -13.859862 0 2.3509886e-38 0 0 0 0
0.12753031 -13.859818 0 2.3509886e-38 0 0 0 0
0.22753026 -13.859774 0 2.3509886e-38 0 0 0 0
0.30753022 -13.859738 0 2.3509886e-38 0 0 0 0
0.40753025 -13.859694 0 2.3509886e-38 0 0 0 0
0.52753025 -13.859641 0 2.3509886e-38 0 0 0 0
0.62753028 -13.859597 0 2.3509886e-38 0 0 0 0
0.7075302 -13.859563 0 2.3509886e-38 0 0 0 0
0.78753018 -13.859528 0 2.3509886e-38 0 0 0 0
2.0075302 -13.85899 0 2.3509886e-38 0 0 0 0
2.1075301 -13.858946 0 2.3509886e-38 0 0 0 0
2.20753 -13.8589 0 2.3509886e-38 0 0 0 0
2.3075302 -13.858857 0 2.3509886e-38 0 0 0 0
2.4075301 -13.858813 0 2.3509886e-38 0 0 0 0
2.50753 -13.858769 0 2.3509886e-38 0 0 0 0
3.8075299 -13.858196 0 2.3509886e-38 0 0 0 0
3.9075298 -13.858152 0 2.3509886e-38 0 0 0 0
4.0075297 -13.858109 0 2.3509886e-38 0 0 0 0
4.1075296 -13.858065 0 2.3509886e-38 0 0 0 0
-15.552504 -13.786726 0 2.3509886e-38 0 0 0 0
-15.492503 -13.786699 0 2.3509886e-38 0 0 0 0
-15.412512 -13.766665 0 2.3509886e-38 0 0 0 0
-14.392529 -13.726214 0 2.3509886e-38 0 0 0 0
-14.29253 -13.726171 0 2.3509886e-38 0 0 0 0
-14.21253 -13.726135 0 2.3509886e-38 0 0 0 0
-12.952512 -13.76558 0 2.3509886e-38 0 0 0 0
-12.892511 -13.765553 0 2.3509886e-38 0 0 0 0
-12.792511 -13.76551 0 2.3509886e-38 0 0 0 0
-12.692513 -13.765466 0 2.3509886e-38 0 0 0 0
-12.592512 -13.765423 0 2.3509886e-38 0 0 0 0
-12.492513 -13.765378 0 2.3509886e-38 0 0 0 0
-12.392503 -13.785333 0 2.3509886e-38 0 0 0 0
-12.292503 -13.785289 0 2.3509886e-38 0 0 0 0
-12.192502 -13.785246 0 2.3509886e-38 0 0 0 0
-12.092503 -13.785201 0 2.3509886e-38 0 0 0 0
-12.012513 -13.765166 0 2.3509886e-38 0 0 0 0
-11.552514 -13.764963 0 2.3509886e-38 0 0 0 0
-11.492514 -13.764939 0 2.3509886e-38 0 0 0 0
-11.392513 -13.764893 0 2.3509886e-38 0 0 0 0
-11.292512 -13.764849 0 2.3509886e-38 0 0 0 0
-11.192513 -13.764806 0 2.3509886e-38 0 0 0 0
-11.092512 -13.764761 0 2.3509886e-38 0 0 0 0
-10.992513 -13.764718 0 2.3509886e-38 0 0 0 0
-10.892512 -13.764672 0 2.3509886e-38 0 0 0 0
-10.792513 -13.764629 0 2.3509886e-38 0 0 0 0
-10.692513 -13.764585 0 2.3509886e-38 0 0 0 0
-10.592513 -13.764541 0 2.3509886e-38 0 0 0 0
-10.492514 -13.764497 0 2.3509886e-38 0 0 0 0
-8.9925127 -13.763836 0 2.3509886e-38 0 0 0 0
-8.8925123 -13.763791 0 2.3509886e-38 0 0 0 0
-8.7925129 -13.763748 0 2.3509886e-38 0 0 0 0
-8.6925135 -13.763703 0 2.3509886e-38 0 0 0 0
-8.5925131 -13.763659 0 2.3509886e-38 0 0 0 0
-8.4925127 -13.763615 0 2.3509886e-38 0 0 0 0
-8.3925123 -13.763571 0 2.3509886e-38 0 0 0 0
-8.2925129 -13.763527 0 2.3509886e-38 0 0 0 0
-8.1925125 -13.763484 0 2.3509886e-38 0 0 0 0
-8.0925121 -13.763439 0 2.3509886e-38 0 0 0 0
-7.9925127 -13.763395 0 2.3509886e-38 0 0 0 0
-7.8925128 -13.76335 0 2.3509886e-38 0 0 0 0
-7.7925124 -13.763308 0 2.3509886e-38 0 0 0 0
-7.692513 -13.763263 0 2.3509886e-38 0 0 0 0
-7.5925131 -13.763219 0 2.3509886e-38 0 0 0 0
-7.4925132 -13.763174 0 2.3509886e-38 0 0 0 0
-7.3925128 -13.76313 0 2.3509886e-38 0 0 0 0
-7.2925129 -13.763086 0 2.3509886e-38 0 0 0 0
-7.1925125 -13.763042 0 2.3509886e-38 0 0 0 0
-7.0925126 -13.762999 0 2.3509886e-38 0 0 0 0
-6.9925127 -13.762955 0 2.3509886e-38 0 0 0 0
-6.8925128 -13.76291 0 2.3509886e-38 0 0 0 0
-6.7925129 -13.762866 0 2.3509886e-38 0 0 0 0
-6.692513 -13.762822 0 2.3509886e-38 0 0 0 0
-6.5925131 -13.762778 0 2.3509886e-38 0 0 0 0
-6.4925132 -13.762735 0 2.3509886e-38 0 0 0 0
-6.3925133 -13.762691 0 2.3509886e-38 0 0 0 0
-6.2925129 -13.762646 0 2.3509886e-38 0 0 0 0
-6.1925135 -13.762602 0 2.3509886e-38 0 0 0 0
-6.0925126 -13.762557 0 2.3509886e-38 0 0 0 0
-5.9925127 -13.762514 0 2.3509886e-38 0 0 0 0
-5.8925128 -13.762471 0 2.3509886e-38 0 0 0 0
-5.7925129 -13.762426 0 2.3509886e-38 0 0 0 0
-5.692513 -13.762382 0 2.3509886e-38 0 0 0 0
-5.5925131 -13.762338 0 2.3509886e-38 0 0 0 0
-5.4925132 -13.762293 0 2.3509886e-38 0 0 0 0
-5.3925123 -13.762248 0 2.3509886e-38 0 0 0 0
-5.2925129 -13.762207 0 2.3509886e-38 0 0 0 0
-5.192513 -13.762162 0 2.3509886e-38 0 0 0 0
-5.0925126 -13.762116 0 2.3509886e-38 0 0 0 0
-4.9925132 -13.762073 0 2.3509886e-38 0 0 0 0
-4.8925128 -13.762029 0 2.3509886e-38 0 0 0 0
-4.7925129 -13.761986 0 2.3509886e-38 0 0 0 0
-4.692513 -13.761941 0 2.3509886e-38 0 0 0 0
-4.5925136 -13.761896 0 2.3509886e-38 0 0 0 0
-4.4925132 -13.761852 0 2.3509886e-38 0 0 0 0
-4.3925047 -13.781808 0 2.3509886e-38 0 0 0 0
-4.2925043 -13.781764 0 2.3509886e-38 0 0 0 0
-4.1925044 -13.781721 0 2.3509886e-38 0 0 0 0
-4.0925045 -13.781675 0 2.3509886e-38 0 0 0 0
-3.9925044 -13.781631 0 2.3509886e-38 0 0 0 0
-3.8925045 -13.781588 0 2.3509886e-38 0 0 0 0
-3.7925131 -13.761545 0 2.3509886e-38 0 0 0 0
-3.6925135 -13.7615 0 2.3509886e-38 0 0 0 0
-3.2125046 -13.781288 0 2.3509886e-38 0 0 0 0
-2.352531 -13.720909 0 2.3509886e-38 0 0 0 0
-2.292531 -13.720883 0 2.3509886e-38 0 0 0 0
-2.1925137 -13.760839 0 2.3509886e-38 0 0 0 0
-2.0925136 -13.760795 0 2.3509886e-38 0 0 0 0
-1.9925133 -13.760751 0 2.3509886e-38 0 0 0 0
-1.8925134 -13.760707 0 2.3509886e-38 0 0 0 0
-1.7925135 -13.760663 0 2.3509886e-38 0 0 0 0
-1.6925135 -13.760618 0 2.3509886e-38 0 0 0 0
-1.5925312 -13.720573 0 2.3509886e-38 0 0 0 0
-1.4925312 -13.720531 0 2.3509886e-38 0 0 0 0
-1.3765206 -13.744478 0 2.3509886e-38 0 0 0 0
-1.2925136 -13.760443 0 2.3509886e-38 0 0 0 0
-1.1925136 -13.760399 0 2.3509886e-38 0 0 0 0
-1.0925137 -13.760354 0 2.3509886e-38 0 0 0 0
-0.9925136 -13.760312 0 2.3509886e-38 0 0 0 0
-0.89251363 -13.760266 0 2.3509886e-38 0 0 0 0
-0.79251367 -13.760223 0 2.3509886e-38 0 0 0 0
-0.69251364 -13.760178 0 2.3509886e-38 0 0 0 0
-0.59251368 -13.760135 0 2.3509886e-38 0 0 0 0
-0.47251371 -13.760082 0 2.3509886e-38 0 0 0 0
-0.37251371 -13.760037 0 2.3509886e-38 0 0 0 0
-0.27251372 -13.759993 0 2.3509886e-38 0 0 0 0
-0.17251371 -13.759949 0 2.3509886e-38 0 0 0 0
-0.072513789 -13.759905 0 2.3509886e-38 0 0 0 0
0.027486285 -13.759861 0 2.3509886e-38 0 0 0 0
0.12748618 -13.759818 0 2.3509886e-38 0 0 0 0
0.22748631 -13.759772 0 2.3509886e-38 0 0 0 0
0.30748624 -13.759737 0 2.3509886e-38 0 0 0 0
0.40748617 -13.759694 0 2.3509886e-38 0 0 0 0
0.52748621 -13.759642 0 2.3509886e-38 0 0 0 0
0.62748605 -13.759598 0 2.3509886e-38 0 0 0 0
0.70748621 -13.759562 0 2.3509886e-38 0 0 0 0
0.80748612 -13.759518 0 2.3509886e-38 0 0 0 0
0.90748614 -13.759473 0 2.3509886e-38 0 0 0 0
2.0074859 -13.758988 0 2.3509886e-38 0 0 0 0
2.107486 -13.758945 0 2.3509886e-38 0 0 0 0
2.2074857 -13.7589 0 2.3509886e-38 0 0 0 0
2.3074858 -13.758856 0 2.3509886e-38 0 0 0 0
2.407486 -13.758812 0 2.3509886e-38 0 0 0 0
2.5274858 -13.758759 0 2.3509886e-38 0 0 0 0
2.607486 -13.758724 0 2.3509886e-38 0 0 0 0
3.2074857 -13.75846 0 2.3509886e-38 0 0 0 0
3.3074858 -13.758415 0 2.3509886e-38 0 0 0 0
3.407486 -13.758372 0 2.3509886e-38 0 0 0 0
3.5074859 -13.758329 0 2.3509886e-38 0 0 0 0
3.6074858 -13.758284 0 2.3509886e-38 0 0 0 0
3.7074857 -13.758239 0 2.3509886e-38 0 0 0 0
3.7874949 -13.778203 0 2.3509886e-38 0 0 0 0
4.2474685 -13.718001 0 2.3509886e-38 0 0 0 0
4.3074684 -13.717975 0 2.3509886e-38 0 0 0 0
4.4074683 -13.71793 0 2.3509886e-38 0 0 0 0
4.5074682 -13.717887 0 2.3509886e-38 0 0 0 0
4.6074681 -13.717842 0 2.3509886e-38 0 0 0 0
4.707468 -13.717798 0 2.3509886e-38 0 0 0 0
4.8074684 -13.717753 0 2.3509886e-38 0 0 0 0
4.9074683 -13.71771 0 2.3509886e-38 0 0 0 0
-15.412555 -13.666665 0 2.3509886e-38 0 0 0 0
-14.392555 -13.666216 0 2.3509886e-38 0 0 0 0
-14.292556 -13.666171 0 2.3509886e-38 0 0 0 0
-14.212556 -13.666136 0 2.3509886e-38 0 0 0 0
-12.952557 -13.665581 0 2.3509886e-38 0 0 0 0
-12.892556 -13.665554 0 2.3509886e-38 0 0 0 0
-12.792557 -13.66551 0 2.3509886e-38 0 0 0 0
-12.692557 -13.665466 0 2.3509886e-38 0 0 0 0
-12.592557 -13.665422 0 2.3509886e-38 0 0 0 0
-12.492558 -13.665379 0 2.3509886e-38 0 0 0 0
-12.012556 -13.665167 0 2.3509886e-38 0 0 0 0
-11.552557 -13.664964 0 2.3509886e-38 0 0 0 0
-11.492558 -13.664938 0 2.3509886e-38 0 0 0 0
-11.392558 -13.664893 0 2.3509886e-38 0 0 0 0
-11.292557 -13.664849 0 2.3509886e-38 0 0 0 0
-11.192555 -13.664805 0 2.3509886e-38 0 0 0 0
-11.092556 -13.664762 0 2.3509886e-38 0 0 0 0
-10.992557 -13.664718 0 2.3509886e-38 0 0 0 0
-10.892557 -13.664673 0 2.3509886e-38 0 0 0 0
-10.792557 -13.664629 0 2.3509886e-38 0 0 0 0
-10.692556 -13.664585 0 2.3509886e-38 0 0 0 0
-10.592556 -13.664541 0 2.3509886e-38 0 0 0 0
-10.492558 -13.664497 0 2.3509886e-38 0 0 0 0
-8.9925566 -13.663836 0 2.3509886e-38 0 0 0 0
-8.8925571 -13.663792 0 2.3509886e-38 0 0 0 0
-8.7925568 -13.663748 0 2.3509886e-38 0 0 0 0
-8.6925564 -13.663704 0 2.3509886e-38 0 0 0 0
-8.592556 -13.66366 0 2.3509886e-38 0 0 0 0
-8.4925566 -13.663615 0 2.3509886e-38 0 0 0 0
-8.3925571 -13.663571 0 2.3509886e-38 0 0 0 0
-8.2925568 -13.663527 0 2.3509886e-38 0 0 0 0
-8.1925573 -13.663484 0 2.3509886e-38 0 0 0 0
-8.092557 -13.66344 0 2.3509886e-38 0 0 0 0
-7.992557 -13.663395 0 2.3509886e-38 0 0 0 0
-7.8925562 -13.663351 0 2.3509886e-38 0 0 0 0
-7.7925568 -13.663307 0 2.3509886e-38 0 0 0 0
-7.6925569 -13.663263 0 2.3509886e-38 0 0 0 0
-7.5925565 -13.663219 0 2.3509886e-38 0 0 0 0
-7.4925566 -13.663175 0 2.3509886e-38 0 0 0 0
-7.3925567 -13.663131 0 2.3509886e-38 0 0 0 0
-7.2925568 -13.663087 0 2.3509886e-38 0 0 0 0
-7.1925564 -13.663043 0 2.3509886e-38 0 0 0 0
-7.092557 -13.662999 0 2.3509886e-38 0 0 0 0
-6.992557 -13.662954 0 2.3509886e-38 0 0 0 0
-6.8925567 -13.66291 0 2.3509886e-38 0 0 0 0
-6.7925568 -13.662867 0 2.3509886e-38 0 0 0 0
-6.6925569 -13.662823 0 2.3509886e-38 0 0 0 0
-6.592557 -13.662779 0 2.3509886e-38 0 0 0 0
-6.492557 -13.662734 0 2.3509886e-38 0 0 0 0
-6.3925571 -13.66269 0 2.3509886e-38 0 0 0 0
-6.2925572 -13.662646 0 2.3509886e-38 0 0 0 0
-6.1925573 -13.662602 0 2.3509886e-38 0 0 0 0
-6.0925574 -13.662558 0 2.3509886e-38 0 0 0 0
-5.9925575 -13.662514 0 2.3509886e-38 0 0 0 0
-5.8925571 -13.66247 0 2.3509886e-38 0 0 0 0
-5.7925572 -13.662426 0 2.3509886e-38 0 0 0 0
-5.6925573 -13.662382 0 2.3509886e-38 0 0 0 0
-5.592557 -13.662337 0 2.3509886e-38 0 0 0 0
-5.4925575 -13.662293 0 2.3509886e-38 0 0 0 0
-5.3925571 -13.66225 0 2.3509886e-38 0 0 0 0
-5.2925572 -13.662206 0 2.3509886e-38 0 0 0 0
-5.1925573 -13.662162 0 2.3509886e-38 0 0 0 0
-5.0925574 -13.662117 0 2.3509886e-38 0 0 0 0
-4.9925575 -13.662073 0 2.3509886e-38 0 0 0 0
-4.8925571 -13.662029 0 2.3509886e-38 0 0 0 0
-4.7925572 -13.661985 0 2.3509886e-38 0 0 0 0
-4.6925573 -13.661942 0 2.3509886e-38 0 0 0 0
-4.592557 -13.661897 0 2.3509886e-38 0 0 0 0
-4.492557 -13.661853 0 2.3509886e-38 0 0 0 0
-3.7925572 -13.661545 0 2.3509886e-38 0 0 0 0
-3.6925573 -13.661501 0 2.3509886e-38 0 0 0 0
-2.3525574 -13.66091 0 2.3509886e-38 0 0 0 0
-2.2925575 -13.660884 0 2.3509886e-38 0 0 0 0
-2.1925576 -13.660839 0 2.3509886e-38 0 0 0 0
-2.0925574 -13.660795 0 2.3509886e-38 0 0 0 0
-1.9925576 -13.660751 0 2.3509886e-38 0 0 0 0
-1.8925576 -13.660707 0 2.3509886e-38 0 0 0 0
-1.7925576 -13.660664 0 2.3509886e-38 0 0 0 0
-1.6925576 -13.660619 0 2.3509886e-38 0 0 0 0
-1.5925577 -13.660575 0 2.3509886e-38 0 0 0 0
-1.4925576 -13.660531 0 2.3509886e-38 0 0 0 0
-1.3925576 -13.660487 0 2.3509886e-38 0 0 0 0
-1.2925576 -13.660443 0 2.3509886e-38 0 0 0 0
-1.1925576 -13.660398 0 2.3509886e-38 0 0 0 0
-1.0925577 -13.660355 0 2.3509886e-38 0 0 0 0
-0.9925577 -13.660311 0 2.3509886e-38 0 0 0 0
-0.89255768 -13.660267 0 2.3509886e-38 0 0 0 0
-0.79255772 -13.660223 0 2.3509886e-38 0 0 0 0
-0.69255775 -13.660178 0 2.3509886e-38 0 0 0 0
-0.59255773 -13.660134 0 2.3509886e-38 0 0 0 0
-0.47255778 -13.660082 0 2.3509886e-38 0 0 0 0
-0.37255779 -13.660038 0 2.3509886e-38 0 0 0 0
-0.2725578 -13.659993 0 2.3509886e-38 0 0 0 0
-0.1725578 -13.659949 0 2.3509886e-38 0 0 0 0
-0.072557792 -13.659905 0 2.3509886e-38 0 0 0 0
0.027442161 -13.659862 0 2.3509886e-38 0 0 0 0
0.12744218 -13.659818 0 2.3509886e-38 0 0 0 0
0.22744219 -13.659773 0 2.3509886e-38 0 0 0 0
0.3074421 -13.659738 0 2.3509886e-38 0 0 0 0
0.40744212 -13.659694 0 2.3509886e-38 0 0 0 0
0.5274421 -13.659641 0 2.3509886e-38 0 0 0 0
0.62744212 -13.659596 0 2.3509886e-38 0 0 0 0
0.70744205 -13.659562 0 2.3509886e-38 0 0 0 0
0.80744207 -13.659517 0 2.3509886e-38 0 0 0 0
0.90744209 -13.659473 0 2.3509886e-38 0 0 0 0
2.007442 -13.658989 0 2.3509886e-38 0 0 0 0
2.1074419 -13.658945 0 2.3509886e-38 0 0 0 0
2.2074418 -13.6589 0 2.3509886e-38 0 0 0 0
2.3074419 -13.658856 0 2.3509886e-38 0 0 0 0
2.4074419 -13.658813 0 2.3509886e-38 0 0 0 0
2.5274417 -13.65876 0 2.3509886e-38 0 0 0 0
2.6074419 -13.658725 0 2.3509886e-38 0 0 0 0
3.2074418 -13.65846 0 2.3509886e-38 0 0 0 0
3.3074417 -13.658416 0 2.3509886e-38 0 0 0 0
3.4074419 -13.658372 0 2.3509886e-38 0 0 0 0
3.5074418 -13.658328 0 2.3509886e-38 0 0 0 0
3.6074417 -13.658284 0 2.3509886e-38 0 0 0 0
3.707442 -13.658239 0 2.3509886e-38 0 0 0 0
4.2474418 -13.658002 0 2.3509886e-38 0 0 0 0
4.3074417 -13.657975 0 2.3509886e-38 0 0 0 0
4.4074416 -13.657931 0 2.3509886e-38 0 0 0 0
4.5074415 -13.657887 0 2.3509886e-38 0 0 0 0
4.6074414 -13.657844 0 2.3509886e-38 0 0 0 0
4.7074413 -13.657799 0 2.3509886e-38 0 0 0 0
4.8074417 -13.657755 0 2.3509886e-38 0 0 0 0
4.9074416 -13.657711 0 2.3509886e-38 0 0 0 0
-14.752618 -13.526374 0 2.3509886e-38 0 0 0 0
-14.692617 -13.526347 0 2.3509886e-38 0 0 0 0
-14.5926 -13.566302 0 2.3509886e-38 0 0 0 0
-14.4926 -13.566258 0 2.3509886e-38 0 0 0 0
-14.3926 -13.566215 0 2.3509886e-38 0 0 0 0
-14.292601 -13.566172 0 2.3509886e-38 0 0 0 0
-14.192599 -13.566126 0 2.3509886e-38 0 0 0 0
-14.0926 -13.566082 0 2.3509886e-38 0 0 0 0
-14.004031 -13.560328 0 2.3509886e-38 0 0 0 0
-13.892618 -13.525995 0 2.3509886e-38 0 0 0 0
-13.812618 -13.52596 0 2.3509886e-38 0 0 0 0
-13.186881 -13.577111 0 2.3509886e-38 0 0 0 0
-13.0926 -13.565641 0 2.3509886e-38 0 0 0 0
-12.9926 -13.565598 0 2.3509886e-38 0 0 0 0
-12.8926 -13.565553 0 2.3509886e-38 0 0 0 0
-12.792592 -13.585509 0 2.3509886e-38 0 0 0 0
-12.692593 -13.585466 0 2.3509886e-38 0 0 0 0
-12.612592 -13.585431 0 2.3509886e-38 0 0 0 0
-11.9526 -13.565141 0 2.3509886e-38 0 0 0 0
-11.8926 -13.565112 0 2.3509886e-38 0 0 0 0
-11.792601 -13.565068 0 2.3509886e-38 0 0 0 0
-11.692601 -13.565024 0 2.3509886e-38 0 0 0 0
-11.592592 -13.584981 0 2.3509886e-38 0 0 0 0
-11.492593 -13.584937 0 2.3509886e-38 0 0 0 0
-11.386883 -13.576319 0 2.3509886e-38 0 0 0 0
-11.2926 -13.564848 0 2.3509886e-38 0 0 0 0
-11.1926 -13.564804 0 2.3509886e-38 0 0 0 0
-11.0926 -13.56476 0 2.3509886e-38 0 0 0 0
-10.9926 -13.564716 0 2.3509886e-38 0 0 0 0
-10.8926 -13.564672 0 2.3509886e-38 0 0 0 0
-10.792592 -13.584628 0 2.3509886e-38 0 0 0 0
-10.692592 -13.584585 0 2.3509886e-38 0 0 0 0
-9.1526003 -13.563907 0 2.3509886e-38 0 0 0 0
-9.0925999 -13.563879 0 2.3509886e-38 0 0 0 0
-8.9926014 -13.563834 0 2.3509886e-38 0 0 0 0
-8.8926001 -13.56379 0 2.3509886e-38 0 0 0 0
-8.7926006 -13.563746 0 2.3509886e-38 0 0 0 0
-8.6926012 -13.563703 0 2.3509886e-38 0 0 0 0
-8.5926008 -13.563659 0 2.3509886e-38 0 0 0 0
-8.4926014 -13.563614 0 2.3509886e-38 0 0 0 0
-8.392601 -13.56357 0 2.3509886e-38 0 0 0 0
-8.2926006 -13.563526 0 2.3509886e-38 0 0 0 0
-8.1926012 -13.563482 0 2.3509886e-38 0 0 0 0
-8.0926008 -13.563438 0 2.3509886e-38 0 0 0 0
-7.9926009 -13.563394 0 2.3509886e-38 0 0 0 0
-7.892601 -13.56335 0 2.3509886e-38 0 0 0 0
-7.7926016 -13.563306 0 2.3509886e-38 0 0 0 0
-7.6926012 -13.563262 0 2.3509886e-38 0 0 0 0
-7.5926013 -13.563219 0 2.3509886e-38 0 0 0 0
-7.4926014 -13.563173 0 2.3509886e-38 0 0 0 0
-7.3926015 -13.563129 0 2.3509886e-38 0 0 0 0
-7.2926011 -13.563086 0 2.3509886e-38 0 0 0 0
-7.1926012 -13.563042 0 2.3509886e-38 0 0 0 0
-7.0926008 -13.562998 0 2.3509886e-38 0 0 0 0
-6.9926009 -13.562953 0 2.3509886e-38 0 0 0 0
-6.892601 -13.562909 0 2.3509886e-38 0 0 0 0
-6.7926011 -13.562865 0 2.3509886e-38 0 0 0 0
-6.6926012 -13.562821 0 2.3509886e-38 0 0 0 0
-6.5926013 -13.562778 0 2.3509886e-38 0 0 0 0
-6.4926004 -13.562733 0 2.3509886e-38 0 0 0 0
-6.392601 -13.56269 0 2.3509886e-38 0 0 0 0
-6.2926011 -13.562647 0 2.3509886e-38 0 0 0 0
-6.1926012 -13.562601 0 2.3509886e-38 0 0 0 0
-6.0926008 -13.562557 0 2.3509886e-38 0 0 0 0
-5.9926014 -13.562512 0 2.3509886e-38 0 0 0 0
-5.892601 -13.56247 0 2.3509886e-38 0 0 0 0
-5.7926016 -13.562425 0 2.3509886e-38 0 0 0 0
-5.6926012 -13.562381 0 2.3509886e-38 0 0 0 0
-5.5926013 -13.562336 0 2.3509886e-38 0 0 0 0
-5.4926014 -13.562292 0 2.3509886e-38 0 0 0 0
-5.3926015 -13.562248 0 2.3509886e-38 0 0 0 0
-5.2926006 -13.562204 0 2.3509886e-38 0 0 0 0
-5.1926012 -13.56216 0 2.3509886e-38 0 0 0 0
-5.0926008 -13.562118 0 2.3509886e-38 0 0 0 0
-4.9926009 -13.562072 0 2.3509886e-38 0 0 0 0
-4.892601 -13.562028 0 2.3509886e-38 0 0 0 0
-4.7926011 -13.561984 0 2.3509886e-38 0 0 0 0
-4.6926012 -13.56194 0 2.3509886e-38 0 0 0 0
-4.6125927 -13.581906 0 2.3509886e-38 0 0 0 0
-2.592593 -13.581015 0 2.3509886e-38 0 0 0 0
-2.4925928 -13.580972 0 2.3509886e-38 0 0 0 0
-2.3925929 -13.580927 0 2.3509886e-38 0 0 0 0
-2.2925928 -13.580884 0 2.3509886e-38 0 0 0 0
-2.1926017 -13.560838 0 2.3509886e-38 0 0 0 0
-2.0926018 -13.560794 0 2.3509886e-38 0 0 0 0
-1.9926014 -13.56075 0 2.3509886e-38 0 0 0 0
-1.8926016 -13.560706 0 2.3509886e-38 0 0 0 0
-1.7926017 -13.560663 0 2.3509886e-38 0 0 0 0
-1.6926017 -13.560617 0 2.3509886e-38 0 0 0 0
-1.5926017 -13.560574 0 2.3509886e-38 0 0 0 0
-1.4926018 -13.560532 0 2.3509886e-38 0 0 0 0
-1.3926017 -13.560486 0 2.3509886e-38 0 0 0 0
-1.2926017 -13.560444 0 2.3509886e-38 0 0 0 0
-1.1926017 -13.560397 0 2.3509886e-38 0 0 0 0
-1.0926018 -13.560355 0 2.3509886e-38 0 0 0 0
-0.99259293 -13.58031 0 2.3509886e-38 0 0 0 0
-0.89259297 -13.580267 0 2.3509886e-38 0 0 0 0
-0.79259294 -13.580222 0 2.3509886e-38 0 0 0 0
-0.69259298 -13.580178 0 2.3509886e-38 0 0 0 0
-0.59259301 -13.580133 0 2.3509886e-38 0 0 0 0
-0.4668825 -13.571507 0 2.3509886e-38 0 0 0 0
-0.37260181 -13.560037 0 2.3509886e-38 0 0 0 0
-0.27260181 -13.559992 0 2.3509886e-38 0 0 0 0
-0.17260185 -13.55995 0 2.3509886e-38 0 0 0 0
-0.072601922 -13.559904 0 2.3509886e-38 0 0 0 0
0.027398154 -13.55986 0 2.3509886e-38 0 0 0 0
0.12739804 -13.559816 0 2.3509886e-38 0 0 0 0
0.22739807 -13.559772 0 2.3509886e-38 0 0 0 0
0.30739811 -13.559736 0 2.3509886e-38 0 0 0 0
0.40739805 -13.559692 0 2.3509886e-38 0 0 0 0
0.52739805 -13.55964 0 2.3509886e-38 0 0 0 0
0.62739795 -13.559598 0 2.3509886e-38 0 0 0 0
0.70739812 -13.559561 0 2.3509886e-38 0 0 0 0
0.80739784 -13.559517 0 2.3509886e-38 0 0 0 0
0.9224003 -13.564466 0 2.3509886e-38 0 0 0 0
1.0074068 -13.57943 0 2.3509886e-38 0 0 0 0
2.0073979 -13.558988 0 2.3509886e-38 0 0 0 0
2.107398 -13.558944 0 2.3509886e-38 0 0 0 0
2.2073977 -13.558899 0 2.3509886e-38 0 0 0 0
2.3073978 -13.558857 0 2.3509886e-38 0 0 0 0
2.4073977 -13.558811 0 2.3509886e-38 0 0 0 0
2.5273976 -13.558759 0 2.3509886e-38 0 0 0 0
2.627398 -13.558714 0 2.3509886e-38 0 0 0 0
2.7073977 -13.558679 0 2.3509886e-38 0 0 0 0
2.8073976 -13.558635 0 2.3509886e-38 0 0 0 0
2.9073977 -13.558593 0 2.3509886e-38 0 0 0 0
2.9873977 -13.558556 0 2.3509886e-38 0 0 0 0
3.4474065 -13.578355 0 2.3509886e-38 0 0 0 0
3.5074065 -13.578328 0 2.3509886e-38 0 0 0 0
3.6074059 -13.578283 0 2.3509886e-38 0 0 0 0
3.7074068 -13.578239 0 2.3509886e-38 0 0 0 0
4.1673799 -13.518037 0 2.3509886e-38 0 0 0 0
4.2373934 -13.548006 0 2.3509886e-38 0 0 0 0
4.3073978 -13.557976 0 2.3509886e-38 0 0 0 0
4.4073977 -13.55793 0 2.3509886e-38 0 0 0 0
4.5073977 -13.557888 0 2.3509886e-38 0 0 0 0
4.6074057 -13.577843 0 2.3509886e-38 0 0 0 0
4.707406 -13.577799 0 2.3509886e-38 0 0 0 0
4.8074064 -13.577754 0 2.3509886e-38 0 0 0 0
4.9074063 -13.577711 0 2.3509886e-38 0 0 0 0
4.9994006 -13.565669 0 2.3509886e-38 0 0 0 0
5.1073799 -13.517623 0 2.3509886e-38 0 0 0 0
-14.752645 -13.466373 0 2.3509886e-38 0 0 0 0
-14.692644 -13.466347 0 2.3509886e-38 0 0 0 0
-14.592644 -13.466303 0 2.3509886e-38 0 0 0 0
-14.492645 -13.466259 0 2.3509886e-38 0 0 0 0
-14.392646 -13.466215 0 2.3509886e-38 0 0 0 0
-14.292645 -13.46617 0 2.3509886e-38 0 0 0 0
-14.192643 -13.466126 0 2.3509886e-38 0 0 0 0
-14.092644 -13.466083 0 2.3509886e-38 0 0 0 0
-13.992644 -13.466039 0 2.3509886e-38 0 0 0 0
-13.892645 -13.465995 0 2.3509886e-38 0 0 0 0
-13.812644 -13.46596 0 2.3509886e-38 0 0 0 0
-13.152644 -13.465669 0 2.3509886e-38 0 0 0 0
-13.092644 -13.465642 0 2.3509886e-38 0 0 0 0
-12.992645 -13.465598 0 2.3509886e-38 0 0 0 0
-12.892644 -13.465553 0 2.3509886e-38 0 0 0 0
-11.952644 -13.465139 0 2.3509886e-38 0 0 0 0
-11.892644 -13.465113 0 2.3509886e-38 0 0 0 0
-11.792645 -13.465069 0 2.3509886e-38 0 0 0 0
-11.692645 -13.465025 0 2.3509886e-38 0 0 0 0
-11.352644 -13.464875 0 2.3509886e-38 0 0 0 0
-11.292645 -13.464849 0 2.3509886e-38 0 0 0 0
-11.192644 -13.464805 0 2.3509886e-38 0 0 0 0
-11.092644 -13.464761 0 2.3509886e-38 0 0 0 0
-10.992644 -13.464718 0 2.3509886e-38 0 0 0 0
-10.892645 -13.464673 0 2.3509886e-38 0 0 0 0
-9.1526442 -13.463905 0 2.3509886e-38 0 0 0 0
-9.0926437 -13.463881 0 2.3509886e-38 0 0 0 0
-8.9926443 -13.463835 0 2.3509886e-38 0 0 0 0
-8.8926449 -13.463791 0 2.3509886e-38 0 0 0 0
-8.7926445 -13.463747 0 2.3509886e-38 0 0 0 0
-8.6926451 -13.463703 0 2.3509886e-38 0 0 0 0
-8.5926447 -13.463659 0 2.3509886e-38 0 0 0 0
-8.4926443 -13.463614 0 2.3509886e-38 0 0 0 0
-8.3926449 -13.463571 0 2.3509886e-38 0 0 0 0
-8.2926445 -13.463527 0 2.3509886e-38 0 0 0 0
-8.1926451 -13.463484 0 2.3509886e-38 0 0 0 0
-8.0926456 -13.463439 0 2.3509886e-38 0 0 0 0
-7.9926443 -13.463394 0 2.3509886e-38 0 0 0 0
-7.8926444 -13.46335 0 2.3509886e-38 0 0 0 0
-7.792645 -13.463306 0 2.3509886e-38 0 0 0 0
-7.6926455 -13.463263 0 2.3509886e-38 0 0 0 0
-7.5926442 -13.463219 0 2.3509886e-38 0 0 0 0
-7.4926448 -13.463174 0 2.3509886e-38 0 0 0 0
-7.3926454 -13.46313 0 2.3509886e-38 0 0 0 0
-7.292645 -13.463086 0 2.3509886e-38 0 0 0 0
-7.1926451 -13.463042 0 2.3509886e-38 0 0 0 0
-7.0926452 -13.462998 0 2.3509886e-38 0 0 0 0
-6.9926443 -13.462954 0 2.3509886e-38 0 0 0 0
-6.8926449 -13.46291 0 2.3509886e-38 0 0 0 0
-6.792645 -13.462866 0 2.3509886e-38 0 0 0 0
-6.6926455 -13.462822 0 2.3509886e-38 0 0 0 0
-6.5926447 -13.462778 0 2.3509886e-38 0 0 0 0
-6.4926448 -13.462733 0 2.3509886e-38 0 0 0 0
-6.3926449 -13.462689 0 2.3509886e-38 0 0 0 0
-6.292645 -13.462646 0 2.3509886e-38 0 0 0 0
-6.1926451 -13.462602 0 2.3509886e-38 0 0 0 0
-6.0926452 -13.462558 0 2.3509886e-38 0 0 0 0
-5.9926453 -13.462513 0 2.3509886e-38 0 0 0 0
-5.8926449 -13.462469 0 2.3509886e-38 0 0 0 0
-5.7926455 -13.462425 0 2.3509886e-38 0 0 0 0
-5.6926455 -13.462381 0 2.3509886e-38 0 0 0 0
-5.5926456 -13.462337 0 2.3509886e-38 0 0 0 0
-5.4926453 -13.462293 0 2.3509886e-38 0 0 0 0
-5.3926454 -13.462249 0 2.3509886e-38 0 0 0 0
-5.2926455 -13.462205 0 2.3509886e-38 0 0 0 0
-5.1926455 -13.462161 0 2.3509886e-38 0 0 0 0
-5.0926456 -13.462117 0 2.3509886e-38 0 0 0 0
-4.9926457 -13.462072 0 2.3509886e-38 0 0 0 0
-4.8926454 -13.462029 0 2.3509886e-38 0 0 0 0
-4.7926455 -13.461986 0 2.3509886e-38 0 0 0 0
-4.6926455 -13.461942 0 2.3509886e-38 0 0 0 0
-2.1926455 -13.46084 0 2.3509886e-38 0 0 0 0
-2.0926459 -13.460794 0 2.3509886e-38 0 0 0 0
-1.9926457 -13.460751 0 2.3509886e-38 0 0 0 0
-1.8926457 -13.460707 0 2.3509886e-38 0 0 0 0
-1.7926457 -13.460663 0 2.3509886e-38 0 0 0 0
-1.6926457 -13.460618 0 2.3509886e-38 0 0 0 0
-1.5926458 -13.460575 0 2.3509886e-38 0 0 0 0
-1.4926459 -13.46053 0 2.3509886e-38 0 0 0 0
-1.3926458 -13.460487 0 2.3509886e-38 0 0 0 0
-1.2926458 -13.460443 0 2.3509886e-38 0 0 0 0
-1.1926458 -13.460398 0 2.3509886e-38 0 0 0 0
-1.0926458 -13.460355 0 2.3509886e-38 0 0 0 0
-0.43264592 -13.460063 0 2.3509886e-38 0 0 0 0
-0.37264591 -13.460037 0 2.3509886e-38 0 0 0 0
-0.27264592 -13.459992 0 2.3509886e-38 0 0 0 0
-0.17264594 -13.459949 0 2.3509886e-38 0 0 0 0
-0.072645985 -13.459905 0 2.3509886e-38 0 0 0 0
0.02735403 -13.459861 0 2.3509886e-38 0 0 0 0
0.12735404 -13.459817 0 2.3509886e-38 0 0 0 0
0.227354 -13.459772 0 2.3509886e-38 0 0 0 0
0.30735397 -13.459737 0 2.3509886e-38 0 0 0 0
0.407354 -13.459693 0 2.3509886e-38 0 0 0 0
0.527354 -13.459641 0 2.3509886e-38 0 0 0 0
0.62735403 -13.459597 0 2.3509886e-38 0 0 0 0
0.70735389 -13.459561 0 2.3509886e-38 0 0 0 0
0.80735391 -13.459517 0 2.3509886e-38 0 0 0 0
0.90735394 -13.459473 0 2.3509886e-38 0 0 0 0
2.0073535 -13.458988 0 2.3509886e-38 0 0 0 0
2.1073539 -13.458944 0 2.3509886e-38 0 0 0 0
2.2073538 -13.458899 0 2.3509886e-38 0 0 0 0
2.307354 -13.458856 0 2.3509886e-38 0 0 0 0
2.4073539 -13.458812 0 2.3509886e-38 0 0 0 0
2.5273538 -13.45876 0 2.3509886e-38 0 0 0 0
2.6273539 -13.458714 0 2.3509886e-38 0 0 0 0
2.7073538 -13.458679 0 2.3509886e-38 0 0 0 0
2.8073535 -13.458635 0 2.3509886e-38 0 0 0 0
2.9073536 -13.458592 0 2.3509886e-38 0 0 0 0
2.9873536 -13.458556 0 2.3509886e-38 0 0 0 0
4.1673532 -13.458036 0 2.3509886e-38 0 0 0 0
4.2273531 -13.45801 0 2.3509886e-38 0 0 0 0
4.3073535 -13.457974 0 2.3509886e-38 0 0 0 0
4.4073534 -13.457931 0 2.3509886e-38 0 0 0 0
4.5073533 -13.457887 0 2.3509886e-38 0 0 0 0
5.0473533 -13.457648 0 2.3509886e-38 0 0 0 0
5.1073532 -13.457623 0 2.3509886e-38 0 0 0 0
-14.79268 -13.386392 0 2.3509886e-38 0 0 0 0
-14.69268 -13.386347 0 2.3509886e-38 0 0 0 0
-14.592679 -13.386304 0 2.3509886e-38 0 0 0 0
-14.49268 -13.386259 0 2.3509886e-38 0 0 0 0
-14.412679 -13.386224 0 2.3509886e-38 0 0 0 0
-11.812679 -13.385077 0 2.3509886e-38 0 0 0 0
-8.3926802 -13.383572 0 2.3509886e-38 0 0 0 0
-8.2926798 -13.383527 0 2.3509886e-38 0 0 0 0
-8.1926804 -13.383484 0 2.3509886e-38 0 0 0 0
-8.09268 -13.383439 0 2.3509886e-38 0 0 0 0
-7.9926796 -13.383395 0 2.3509886e-38 0 0 0 0
-7.8926797 -13.383351 0 2.3509886e-38 0 0 0 0
-7.7926803 -13.383307 0 2.3509886e-38 0 0 0 0
-7.6926808 -13.383263 0 2.3509886e-38 0 0 0 0
-7.6126804 -13.383227 0 2.3509886e-38 0 0 0 0
-7.1526804 -13.383024 0 2.3509886e-38 0 0 0 0
-7.0926805 -13.382998 0 2.3509886e-38 0 0 0 0
-6.9926805 -13.382955 0 2.3509886e-38 0 0 0 0
-6.8926802 -13.38291 0 2.3509886e-38 0 0 0 0
-6.8126807 -13.382874 0 2.3509886e-38 0 0 0 0
-6.3526802 -13.382672 0 2.3509886e-38 0 0 0 0
-6.2926803 -13.382646 0 2.3509886e-38 0 0 0 0
-5.7926803 -13.382426 0 2.3509886e-38 0 0 0 0
-5.6926804 -13.382381 0 2.3509886e-38 0 0 0 0
-5.59268 -13.382338 0 2.3509886e-38 0 0 0 0
-5.4926801 -13.382293 0 2.3509886e-38 0 0 0 0
-5.3926892 -13.36225 0 2.3509886e-38 0 0 0 0
-5.2926898 -13.362206 0 2.3509886e-38 0 0 0 0
-5.1926894 -13.362162 0 2.3509886e-38 0 0 0 0
-5.092689 -13.362118 0 2.3509886e-38 0 0 0 0
-4.9926896 -13.362073 0 2.3509886e-38 0 0 0 0
-4.8926892 -13.36203 0 2.3509886e-38 0 0 0 0
-4.8126807 -13.381993 0 2.3509886e-38 0 0 0 0
-2.1526809 -13.380821 0 2.3509886e-38 0 0 0 0
-2.0926809 -13.380795 0 2.3509886e-38 0 0 0 0
-1.992681 -13.380752 0 2.3509886e-38 0 0 0 0
-1.892681 -13.380707 0 2.3509886e-38 0 0 0 0
-1.792681 -13.380664 0 2.3509886e-38 0 0 0 0
-1.692681 -13.380618 0 2.3509886e-38 0 0 0 0
-1.5926811 -13.380575 0 2.3509886e-38 0 0 0 0
-1.492681 -13.38053 0 2.3509886e-38 0 0 0 0
-1.392681 -13.380487 0 2.3509886e-38 0 0 0 0
-1.292681 -13.380443 0 2.3509886e-38 0 0 0 0
-0.43268114 -13.380063 0 2.3509886e-38 0 0 0 0
-0.37268117 -13.380037 0 2.3509886e-38 0 0 0 0
-0.27268118 -13.379993 0 2.3509886e-38 0 0 0 0
-0.17268118 -13.379949 0 2.3509886e-38 0 0 0 0
-0.072681174 -13.379906 0 2.3509886e-38 0 0 0 0
0.027318779 -13.379861 0 2.3509886e-38 0 0 0 0
0.1273188 -13.379818 0 2.3509886e-38 0 0 0 0
0.22731875 -13.379772 0 2.3509886e-38 0 0 0 0
0.30731872 -13.379737 0 2.3509886e-38 0 0 0 0
0.40231213 -13.364696 0 2.3509886e-38 0 0 0 0
0.50731874 -13.37965 0 2.3509886e-38 0 0 0 0
2.2073185 -13.378901 0 2.3509886e-38 0 0 0 0
2.3073184 -13.378856 0 2.3509886e-38 0 0 0 0
2.4073098 -13.358813 0 2.3509886e-38 0 0 0 0
2.5273097 -13.35876 0 2.3509886e-38 0 0 0 0
2.6273098 -13.358715 0 2.3509886e-38 0 0 0 0
2.70731 -13.35868 0 2.3509886e-38 0 0 0 0
2.8073099 -13.358637 0 2.3509886e-38 0 0 0 0
2.9073095 -13.358593 0 2.3509886e-38 0 0 0 0
2.9873185 -13.378556 0 2.3509886e-38 0 0 0 0
4.0130291 -13.369534 0 2.3509886e-38 0 0 0 0
4.1273098 -13.358055 0 2.3509886e-38 0 0 0 0
4.2273097 -13.358011 0 2.3509886e-38 0 0 0 0
4.3073096 -13.357975 0 2.3509886e-38 0 0 0 0
4.3873181 -13.377939 0 2.3509886e-38 0 0 0 0
-5.3927331 -13.262249 0 2.3509886e-38 0 0 0 0
-5.2927332 -13.262206 0 2.3509886e-38 0 0 0 0
-5.1927333 -13.262161 0 2.3509886e-38 0 0 0 0
-5.0927334 -13.262117 0 2.3509886e-38 0 0 0 0
-4.9927335 -13.262073 0 2.3509886e-38 0 0 0 0
