# .PCD v0.7 - Point Cloud Data file format
VERSION 0.7
FIELDS x y z rgb normal_x normal_y normal_z curvature
SIZE 4 4 4 4 4 4 4 4
TYPE F F F F F F F F
COUNT 1 1 1 1 1 1 1 1
WIDTH 918
HEIGHT 1
VIEWPOINT 0 0 0 1 0 0 0
POINTS 918
DATA ascii
35.724781 -94.559494 14.542595 2.3048907e-39 0 0 0 0
36.192287 -94.581512 14.542595 2.3048907e-39 0 0 0 0
-8.2765846 -94.187065 14.171221 2.3048907e-39 0 0 0 0
35.795639 -94.440285 14.542595 2.3048907e-39 0 0 0 0
36.294533 -94.406395 14.464851 2.3048907e-39 0 0 0 0
-8.2136383 -93.8265 14.171221 2.3048907e-39 0 0 0 0
-8.3613749 -92.640198 14.266228 2.3048907e-39 0 0 0 0
-8.3244896 -92.174393 14.266228 2.3048907e-39 0 0 0 0
-8.4438696 -90.689255 14.266228 2.3048907e-39 0 0 0 0
-8.4069519 -90.374359 14.266228 2.3048907e-39 0 0 0 0
35.237221 -90.114883 14.437268 2.3048907e-39 0 0 0 0
-8.5523453 -89.117935 14.266228 2.3048907e-39 0 0 0 0
-8.5463209 -88.965714 14.097698 2.3048907e-39 0 0 0 0
34.898491 -88.774109 14.437268 2.3048907e-39 0 0 0 0
35.10437 -88.724075 14.437268 2.3048907e-39 0 0 0 0
35.294376 -88.151497 14.437268 2.3048907e-39 0 0 0 0
-8.6714687 -87.822769 14.097698 2.3048907e-39 0 0 0 0
34.900986 -87.777435 14.437268 2.3048907e-39 0 0 0 0
35.11916 -87.787048 14.437268 2.3048907e-39 0 0 0 0
-8.5805178 -87.26133 14.386185 2.3048907e-39 0 0 0 0
34.939362 -87.275787 14.443424 2.3048907e-39 0 0 0 0
35.03194 -87.43856 14.437268 2.3048907e-39 0 0 0 0
-8.5328894 -86.920654 14.386185 2.3048907e-39 0 0 0 0
-8.7560797 -86.240746 14.386185 2.3048907e-39 0 0 0 0
34.88739 -86.303551 14.443424 2.3048907e-39 0 0 0 0
35.026852 -86.452881 14.314264 2.3048907e-39 0 0 0 0
-8.6698694 -85.774895 14.386185 2.3048907e-39 0 0 0 0
34.82309 -85.840881 14.443424 2.3048907e-39 0 0 0 0
35.113873 -85.701721 14.314264 2.3048907e-39 0 0 0 0
-9.558733 -85.327133 14.386185 2.3048907e-39 0 0 0 0
-9.2682648 -85.404083 14.386185 2.3048907e-39 0 0 0 0
-8.8433523 -85.382942 14.386185 2.3048907e-39 0 0 0 0
34.873619 -85.181213 14.606155 2.3048907e-39 0 0 0 0
35.075867 -85.452065 14.443424 2.3048907e-39 0 0 0 0
34.754143 -84.804443 14.606155 2.3048907e-39 0 0 0 0
-8.7230082 -84.196098 14.386185 2.3048907e-39 0 0 0 0
34.814713 -84.169395 14.606155 2.3048907e-39 0 0 0 0
34.690929 -83.882607 14.606155 2.3048907e-39 0 0 0 0
34.736336 -83.14502 14.606155 2.3048907e-39 0 0 0 0
-8.7987919 -82.766258 11.077675 2.3048907e-39 0 0 0 0
34.680206 -82.785118 14.606155 2.3048907e-39 0 0 0 0
34.755974 -82.149826 14.606155 2.3048907e-39 0 0 0 0
-8.9349833 -81.641418 11.340738 2.3048907e-39 0 0 0 0
24.392414 -81.823776 1.378696 2.3048907e-39 0 0 0 0
24.731201 -81.712471 1.378696 2.3048907e-39 0 0 0 0
34.661678 -81.821693 14.606155 2.3048907e-39 0 0 0 0
-8.8901358 -81.389954 11.340738 2.3048907e-39 0 0 0 0
34.483322 -81.089859 14.606155 2.3048907e-39 0 0 0 0
34.736145 -81.168633 14.606155 2.3048907e-39 0 0 0 0
34.61137 -80.817383 14.525791 2.3048907e-39 0 0 0 0
-17.04579 -80.051285 11.368675 2.3048907e-39 0 0 0 0
-16.679548 -80.057251 11.368675 2.3048907e-39 0 0 0 0
-16.278046 -80.029633 11.384975 2.3048907e-39 0 0 0 0
-15.734511 -80.031693 11.412447 2.3048907e-39 0 0 0 0
-15.267599 -80.050217 11.455925 2.3048907e-39 0 0 0 0
-14.906487 -80.028877 11.464533 2.3048907e-39 0 0 0 0
-9.0254431 -80.333656 11.340738 2.3048907e-39 0 0 0 0
-8.9623804 -80.110214 11.340738 2.3048907e-39 0 0 0 0
34.426388 -80.238953 14.525791 2.3048907e-39 0 0 0 0
34.715866 -80.08107 14.525791 2.3048907e-39 0 0 0 0
-17.107754 -79.95726 11.412447 2.3048907e-39 0 0 0 0
-16.769707 -79.976646 11.455925 2.3048907e-39 0 0 0 0
-16.262138 -79.967201 11.464533 2.3048907e-39 0 0 0 0
-15.70772 -79.960083 11.464533 2.3048907e-39 0 0 0 0
-15.238957 -79.930901 11.464533 2.3048907e-39 0 0 0 0
-14.763931 -79.916733 11.464533 2.3048907e-39 0 0 0 0
-14.208769 -79.885574 11.464533 2.3048907e-39 0 0 0 0
-13.776998 -79.860031 11.464533 2.3048907e-39 0 0 0 0
-13.242398 -79.832909 11.464533 2.3048907e-39 0 0 0 0
-12.727718 -79.808746 11.464533 2.3048907e-39 0 0 0 0
-12.305313 -79.782623 11.464533 2.3048907e-39 0 0 0 0
-11.729416 -79.746353 11.31628 2.3048907e-39 0 0 0 0
-11.267509 -79.736076 11.340738 2.3048907e-39 0 0 0 0
-10.812994 -79.714409 11.340738 2.3048907e-39 0 0 0 0
-10.227204 -79.679138 11.340738 2.3048907e-39 0 0 0 0
-9.7311306 -79.639137 11.340738 2.3048907e-39 0 0 0 0
-9.3127213 -79.631149 11.340738 2.3048907e-39 0 0 0 0
-8.8981953 -79.95639 11.340738 2.3048907e-39 0 0 0 0
34.449322 -79.633232 14.332281 2.3048907e-39 0 0 0 0
34.613068 -79.880913 14.332281 2.3048907e-39 0 0 0 0
23.781288 -79.079453 2.5130668 2.3048907e-39 0 0 0 0
34.428749 -79.233879 14.476564 2.3048907e-39 0 0 0 0
34.680313 -79.120644 14.476564 2.3048907e-39 0 0 0 0
48.173782 -79.360252 14.663124 2.3048907e-39 0 0 0 0
48.879566 -79.276428 14.663124 2.3048907e-39 0 0 0 0
49.396351 -79.252701 14.663124 2.3048907e-39 0 0 0 0
49.923779 -79.132309 14.663124 2.3048907e-39 0 0 0 0
50.459503 -79.151917 14.663124 2.3048907e-39 0 0 0 0
50.742966 -79.143784 14.663124 2.3048907e-39 0 0 0 0
51.207245 -79.202789 30 2.3048907e-39 0 0 0 0
51.675922 -79.134781 30 2.3048907e-39 0 0 0 0
52.380138 -79.103004 30 2.3048907e-39 0 0 0 0
52.740074 -79.045151 30 2.3048907e-39 0 0 0 0
53.249905 -79.073753 30 2.3048907e-39 0 0 0 0
53.503426 -79.034943 30 2.3048907e-39 0 0 0 0
54.34066 -79.064995 30 2.3048907e-39 0 0 0 0
54.741379 -79.033142 30 2.3048907e-39 0 0 0 0
57.52388 -79.000687 30 2.3048907e-39 0 0 0 0
23.980682 -78.788971 2.5130668 2.3048907e-39 0 0 0 0
24.203934 -78.721588 2.5130668 2.3048907e-39 0 0 0 0
24.602489 -78.640617 2.5130668 2.3048907e-39 0 0 0 0
34.431427 -78.715134 14.476564 2.3048907e-39 0 0 0 0
34.544521 -78.897003 14.476564 2.3048907e-39 0 0 0 0
50.967068 -78.991638 14.620144 2.3048907e-39 0 0 0 0
52.685513 -78.972137 30 2.3048907e-39 0 0 0 0
53.358631 -78.947845 30 2.3048907e-39 0 0 0 0
53.812195 -78.941231 30 2.3048907e-39 0 0 0 0
54.232502 -78.915588 30 2.3048907e-39 0 0 0 0
54.619286 -78.895447 30 2.3048907e-39 0 0 0 0
55.305473 -78.934326 30 2.3048907e-39 0 0 0 0
55.761463 -78.797272 30 2.3048907e-39 0 0 0 0
56.229202 -78.879082 30 2.3048907e-39 0 0 0 0
56.708862 -78.787018 30 2.3048907e-39 0 0 0 0
57.38065 -78.763885 30 2.3048907e-39 0 0 0 0
57.765705 -78.73764 30 2.3048907e-39 0 0 0 0
58.19545 -78.745537 30 2.3048907e-39 0 0 0 0
34.308281 -78.249428 14.476564 2.3048907e-39 0 0 0 0
34.619221 -78.077019 14.476564 2.3048907e-39 0 0 0 0
34.41898 -77.794289 14.476564 2.3048907e-39 0 0 0 0
34.517517 -77.893539 14.476564 2.3048907e-39 0 0 0 0
0.80619472 -77.098846 1.0724102 2.3048907e-39 0 0 0 0
1.131515 -77.116394 1.0724102 2.3048907e-39 0 0 0 0
34.399727 -77.226807 14.476564 2.3048907e-39 0 0 0 0
34.735806 -77.206871 14.476564 2.3048907e-39 0 0 0 0
35.278076 -77.146194 14.476564 2.3048907e-39 0 0 0 0
35.745228 -77.114754 14.476564 2.3048907e-39 0 0 0 0
36.257156 -77.091331 14.476564 2.3048907e-39 0 0 0 0
36.739872 -77.076653 14.152687 2.3048907e-39 0 0 0 0
37.224693 -77.062675 14.152687 2.3048907e-39 0 0 0 0
37.664932 -77.093246 14.152687 2.3048907e-39 0 0 0 0
38.26968 -77.074692 14.152687 2.3048907e-39 0 0 0 0
38.769993 -77.03244 7.2243023 2.3048907e-39 0 0 0 0
34.863449 -76.973114 14.476564 2.3048907e-39 0 0 0 0
35.099213 -76.950882 13.733969 2.3048907e-39 0 0 0 0
35.717731 -76.948822 14.152687 2.3048907e-39 0 0 0 0
36.242001 -76.963326 14.152687 2.3048907e-39 0 0 0 0
36.740761 -76.95874 14.152687 2.3048907e-39 0 0 0 0
37.25959 -76.963715 7.2243023 2.3048907e-39 0 0 0 0
37.713207 -76.89846 7.0818291 2.3048907e-39 0 0 0 0
38.142151 -76.927841 6.9880142 2.3048907e-39 0 0 0 0
38.825638 -76.8283 6.9880142 2.3048907e-39 0 0 0 0
39.240635 -76.86071 6.9716535 2.3048907e-39 0 0 0 0
39.745209 -76.893974 14.383667 2.3048907e-39 0 0 0 0
42.263546 -76.716057 14.628073 2.3048907e-39 0 0 0 0
42.690567 -76.712929 14.628073 2.3048907e-39 0 0 0 0
43.24136 -76.628922 14.628073 2.3048907e-39 0 0 0 0
43.769157 -76.614906 14.628073 2.3048907e-39 0 0 0 0
44.192413 -76.573029 14.628073 2.3048907e-39 0 0 0 0
44.727222 -76.570602 14.628073 2.3048907e-39 0 0 0 0
45.212593 -76.55732 14.628073 2.3048907e-39 0 0 0 0
45.79755 -76.552521 14.617815 2.3048907e-39 0 0 0 0
46.268089 -76.563934 14.617815 2.3048907e-39 0 0 0 0
47.683659 -76.585403 14.491732 2.3048907e-39 0 0 0 0
48.047173 -76.703117 14.280825 2.3048907e-39 0 0 0 0
26.023901 -76.033989 1.4679149 2.3048907e-39 0 0 0 0
44.969917 -76.421432 14.617815 2.3048907e-39 0 0 0 0
45.289768 -76.423943 14.617815 2.3048907e-39 0 0 0 0
45.762684 -76.452438 14.496927 2.3048907e-39 0 0 0 0
46.223396 -76.398247 14.496927 2.3048907e-39 0 0 0 0
47.433121 -76.422363 14.496927 2.3048907e-39 0 0 0 0
47.83213 -76.402817 14.496927 2.3048907e-39 0 0 0 0
48.224548 -76.356781 14.146273 2.3048907e-39 0 0 0 0
48.594391 -76.357819 3.4692492 2.3048907e-39 0 0 0 0
54.122761 -76.086723 30 2.3048907e-39 0 0 0 0
54.522461 -76.189896 30 2.3048907e-39 0 0 0 0
24.307323 -75.83831 1.2654916 2.3048907e-39 0 0 0 0
26.234354 -75.782959 1.4679149 2.3048907e-39 0 0 0 0
54.342495 -75.972244 30 2.3048907e-39 0 0 0 0
60.668324 -75.745743 30 2.3048907e-39 0 0 0 0
61.133499 -75.695122 30 2.3048907e-39 0 0 0 0
61.909126 -75.680992 30 2.3048907e-39 0 0 0 0
62.375675 -75.735367 30 2.3048907e-39 0 0 0 0
26.135799 -74.547935 1.4679149 2.3048907e-39 0 0 0 0
55.921417 -74.817886 30 2.3048907e-39 0 0 0 0
26.395004 -74.46312 1.4679149 2.3048907e-39 0 0 0 0
26.683701 -74.380875 1.4679149 2.3048907e-39 0 0 0 0
28.626852 -74.008888 1.4084678 2.3048907e-39 0 0 0 0
55.792255 -74.236801 30 2.3048907e-39 0 0 0 0
56.023659 -74.440491 30 2.3048907e-39 0 0 0 0
28.710106 -73.923859 1.4084678 2.3048907e-39 0 0 0 0
33.561958 -73.545776 1.267316 2.3048907e-39 0 0 0 0
55.896935 -73.892944 30 2.3048907e-39 0 0 0 0
56.137535 -73.838432 30 2.3048907e-39 0 0 0 0
56.827892 -73.758507 30 2.3048907e-39 0 0 0 0
57.247505 -73.659714 30 2.3048907e-39 0 0 0 0
57.797485 -73.72039 30 2.3048907e-39 0 0 0 0
58.31406 -73.778931 30 2.3048907e-39 0 0 0 0
58.815891 -73.779282 30 2.3048907e-39 0 0 0 0
59.792107 -73.818573 30 2.3048907e-39 0 0 0 0
60.059299 -73.637558 30 2.3048907e-39 0 0 0 0
33.84536 -73.445175 1.267316 2.3048907e-39 0 0 0 0
57.716831 -73.480476 30 2.3048907e-39 0 0 0 0
-0.032947868 -57.821716 1.3535061 2.3048907e-39 0 0 0 0
26.353584 -57.624592 30 2.3048907e-39 0 0 0 0
26.742634 -57.558723 30 2.3048907e-39 0 0 0 0
27.795696 -57.964577 30 2.3048907e-39 0 0 0 0
26.326391 -57.354595 30 2.3048907e-39 0 0 0 0
26.74782 -57.194771 30 2.3048907e-39 0 0 0 0
27.116047 -57.333656 30 2.3048907e-39 0 0 0 0
35.963989 -57.448406 6.3439293 2.3048907e-39 0 0 0 0
36.017963 -57.464386 6.3439293 2.3048907e-39 0 0 0 0
23.223953 -56.559067 1.3630273 2.3048907e-39 0 0 0 0
26.967697 -56.593491 30 2.3048907e-39 0 0 0 0
27.054947 -56.830906 30 2.3048907e-39 0 0 0 0
33.394238 -56.537228 30 2.3048907e-39 0 0 0 0
35.455055 -56.655804 6.6647792 2.3048907e-39 0 0 0 0
35.670956 -56.684933 6.3439293 2.3048907e-39 0 0 0 0
36.215076 -56.643848 6.3439293 2.3048907e-39 0 0 0 0
36.638771 -56.641052 6.11551 2.3048907e-39 0 0 0 0
44.399307 -56.573002 5.7136364 2.3048907e-39 0 0 0 0
52.297672 -56.562778 1.5392191 2.3048907e-39 0 0 0 0
-10.484943 -56.044975 11.392801 2.3048907e-39 0 0 0 0
23.257294 -56.377029 1.3630273 2.3048907e-39 0 0 0 0
26.951004 -56.092289 30 2.3048907e-39 0 0 0 0
27.102993 -56.23885 30 2.3048907e-39 0 0 0 0
27.810938 -56.076801 30 2.3048907e-39 0 0 0 0
28.004868 -56.018154 30 2.3048907e-39 0 0 0 0
28.636652 -56.228619 30 2.3048907e-39 0 0 0 0
29.26466 -56.172832 30 2.3048907e-39 0 0 0 0
30.326172 -56.249096 30 2.3048907e-39 0 0 0 0
33.39212 -56.22279 30 2.3048907e-39 0 0 0 0
33.751835 -56.270332 30 2.3048907e-39 0 0 0 0
34.77599 -56.228233 6.4334722 2.3048907e-39 0 0 0 0
35.296787 -56.221172 6.4334722 2.3048907e-39 0 0 0 0
35.803989 -56.224686 6.3439293 2.3048907e-39 0 0 0 0
36.223515 -56.221859 6.3439293 2.3048907e-39 0 0 0 0
36.650879 -56.153858 6.3439293 2.3048907e-39 0 0 0 0
37.283714 -56.106758 6.3439293 2.3048907e-39 0 0 0 0
44.307037 -56.200031 5.7136364 2.3048907e-39 0 0 0 0
44.740376 -56.189686 6.3458691 2.3048907e-39 0 0 0 0
-10.566444 -55.68502 11.438696 2.3048907e-39 0 0 0 0
-10.435452 -55.81192 11.438696 2.3048907e-39 0 0 0 0
26.93162 -55.696018 30 2.3048907e-39 0 0 0 0
27.268301 -55.647465 30 2.3048907e-39 0 0 0 0
27.739613 -55.622749 30 2.3048907e-39 0 0 0 0
28.224998 -55.685463 30 2.3048907e-39 0 0 0 0
28.680645 -55.72047 30 2.3048907e-39 0 0 0 0
29.282902 -55.682686 30 2.3048907e-39 0 0 0 0
29.739136 -55.63026 30 2.3048907e-39 0 0 0 0
30.236059 -55.593433 30 2.3048907e-39 0 0 0 0
30.797441 -55.585064 30 2.3048907e-39 0 0 0 0
31.26915 -55.595551 30 2.3048907e-39 0 0 0 0
31.748539 -55.537117 30 2.3048907e-39 0 0 0 0
32.93111 -55.669537 30 2.3048907e-39 0 0 0 0
33.329605 -55.751411 30 2.3048907e-39 0 0 0 0
33.793587 -55.779449 30 2.3048907e-39 0 0 0 0
34.677231 -55.931446 6.2113848 2.3048907e-39 0 0 0 0
35.384899 -55.939159 6.3439293 2.3048907e-39 0 0 0 0
35.834686 -55.75248 6.3439293 2.3048907e-39 0 0 0 0
36.277107 -55.881493 6.3439293 2.3048907e-39 0 0 0 0
36.731663 -55.833378 6.1852169 2.3048907e-39 0 0 0 0
37.560963 -55.899384 6.1852169 2.3048907e-39 0 0 0 0
43.910778 -55.909443 6.3458691 2.3048907e-39 0 0 0 0
44.224556 -55.826492 6.3458691 2.3048907e-39 0 0 0 0
44.699768 -55.789288 21.170094 2.3048907e-39 0 0 0 0
45.289688 -55.708515 30 2.3048907e-39 0 0 0 0
47.202831 -55.571068 30 2.3048907e-39 0 0 0 0
-10.563717 -55.252762 11.438696 2.3048907e-39 0 0 0 0
-10.468737 -55.142296 11.438696 2.3048907e-39 0 0 0 0
27.214142 -55.466976 30 2.3048907e-39 0 0 0 0
27.740288 -55.46273 30 2.3048907e-39 0 0 0 0
28.24361 -55.397457 30 2.3048907e-39 0 0 0 0
28.839117 -55.425968 30 2.3048907e-39 0 0 0 0
29.298782 -55.402691 30 2.3048907e-39 0 0 0 0
29.7628 -55.373215 30 2.3048907e-39 0 0 0 0
30.248112 -55.35413 30 2.3048907e-39 0 0 0 0
30.727161 -55.32946 30 2.3048907e-39 0 0 0 0
31.214743 -55.320229 30 2.3048907e-39 0 0 0 0
31.708817 -55.272594 30 2.3048907e-39 0 0 0 0
32.257511 -55.241932 30 2.3048907e-39 0 0 0 0
32.781563 -55.245766 30 2.3048907e-39 0 0 0 0
33.281013 -55.204807 30 2.3048907e-39 0 0 0 0
33.753784 -55.206326 30 2.3048907e-39 0 0 0 0
34.259834 -55.134193 30 2.3048907e-39 0 0 0 0
34.812607 -55.101181 6.2113848 2.3048907e-39 0 0 0 0
35.257423 -55.093613 6.3439293 2.3048907e-39 0 0 0 0
35.711075 -55.094959 6.3439293 2.3048907e-39 0 0 0 0
36.232662 -55.116741 6.3439293 2.3048907e-39 0 0 0 0
36.677608 -55.163677 6.11551 2.3048907e-39 0 0 0 0
37.235069 -55.122231 6.0573931 2.3048907e-39 0 0 0 0
37.73074 -55.123093 6.0573931 2.3048907e-39 0 0 0 0
38.235561 -55.071423 6.0573931 2.3048907e-39 0 0 0 0
38.844185 -55.072613 6.0573931 2.3048907e-39 0 0 0 0
39.297909 -55.193676 5.9099274 2.3048907e-39 0 0 0 0
39.735855 -55.135113 5.9099274 2.3048907e-39 0 0 0 0
40.269138 -55.159687 5.9099274 2.3048907e-39 0 0 0 0
40.731468 -55.130634 5.9099274 2.3048907e-39 0 0 0 0
41.248104 -55.110008 5.9099274 2.3048907e-39 0 0 0 0
41.699848 -55.128399 5.9099274 2.3048907e-39 0 0 0 0
44.403259 -55.330704 6.0438709 2.3048907e-39 0 0 0 0
44.706726 -55.080681 23.939911 2.3048907e-39 0 0 0 0
45.268627 -55.348125 30 2.3048907e-39 0 0 0 0
45.600407 -55.255447 30 2.3048907e-39 0 0 0 0
46.180618 -55.183777 30 2.3048907e-39 0 0 0 0
46.796707 -55.317802 30 2.3048907e-39 0 0 0 0
47.161583 -55.250153 30 2.3048907e-39 0 0 0 0
-10.57392 -54.70607 11.438696 2.3048907e-39 0 0 0 0
-10.490702 -54.528069 11.438696 2.3048907e-39 0 0 0 0
-0.20888817 -54.973839 1.2573619 2.3048907e-39 0 0 0 0
32.415119 -54.977253 30 2.3048907e-39 0 0 0 0
33.440609 -54.989681 30 2.3048907e-39 0 0 0 0
34.937618 -54.973534 6.2113848 2.3048907e-39 0 0 0 0
35.37595 -54.979179 6.3439293 2.3048907e-39 0 0 0 0
35.858135 -54.975658 6.3439293 2.3048907e-39 0 0 0 0
36.30426 -54.950134 6.3439293 2.3048907e-39 0 0 0 0
36.779881 -54.9104 6.11551 2.3048907e-39 0 0 0 0
37.271404 -54.882504 6.0573931 2.3048907e-39 0 0 0 0
37.715111 -54.896168 5.7445869 2.3048907e-39 0 0 0 0
38.214386 -54.862705 5.7146397 2.3048907e-39 0 0 0 0
38.754208 -54.889767 5.6576452 2.3048907e-39 0 0 0 0
39.30114 -54.886883 5.6576452 2.3048907e-39 0 0 0 0
39.824417 -54.844322 5.7920198 2.3048907e-39 0 0 0 0
40.230667 -54.860619 5.7920198 2.3048907e-39 0 0 0 0
40.716076 -54.841835 5.9099274 2.3048907e-39 0 0 0 0
41.247612 -54.810093 5.9196548 2.3048907e-39 0 0 0 0
41.803185 -54.755844 5.9196548 2.3048907e-39 0 0 0 0
42.286362 -54.70031 5.9196548 2.3048907e-39 0 0 0 0
42.703526 -54.687687 5.9196548 2.3048907e-39 0 0 0 0
43.181923 -54.675365 5.9196548 2.3048907e-39 0 0 0 0
43.774246 -54.629795 5.9196548 2.3048907e-39 0 0 0 0
44.317154 -54.623901 5.9196548 2.3048907e-39 0 0 0 0
44.725952 -54.651302 23.906151 2.3048907e-39 0 0 0 0
45.230003 -54.640148 30 2.3048907e-39 0 0 0 0
45.741695 -54.640461 30 2.3048907e-39 0 0 0 0
46.219147 -54.612579 30 2.3048907e-39 0 0 0 0
46.814056 -54.610733 30 2.3048907e-39 0 0 0 0
47.206951 -54.659019 30 2.3048907e-39 0 0 0 0
47.817379 -54.588226 30 2.3048907e-39 0 0 0 0
48.266533 -54.540714 30 2.3048907e-39 0 0 0 0
48.73827 -54.608555 30 2.3048907e-39 0 0 0 0
49.219852 -54.640896 30 2.3048907e-39 0 0 0 0
-10.613154 -54.179581 11.438696 2.3048907e-39 0 0 0 0
45.279594 -54.469994 30 2.3048907e-39 0 0 0 0
45.823963 -54.465748 30 2.3048907e-39 0 0 0 0
46.254486 -54.452881 30 2.3048907e-39 0 0 0 0
46.717476 -54.431374 30 2.3048907e-39 0 0 0 0
47.276722 -54.380398 30 2.3048907e-39 0 0 0 0
47.740864 -54.355991 30 2.3048907e-39 0 0 0 0
48.253403 -54.34914 30 2.3048907e-39 0 0 0 0
48.716537 -54.256168 30 2.3048907e-39 0 0 0 0
49.259079 -54.191696 30 2.3048907e-39 0 0 0 0
49.7085 -54.171455 30 2.3048907e-39 0 0 0 0
50.21909 -54.152691 30 2.3048907e-39 0 0 0 0
51.306862 -54.029804 11.808496 2.3048907e-39 0 0 0 0
-10.643124 -53.764851 11.438696 2.3048907e-39 0 0 0 0
-10.499523 -53.830612 11.438696 2.3048907e-39 0 0 0 0
22.97508 -53.635376 2.4171817 2.3048907e-39 0 0 0 0
48.326874 -53.832573 30 2.3048907e-39 0 0 0 0
48.776978 -53.881519 30 2.3048907e-39 0 0 0 0
49.299976 -53.912666 30 2.3048907e-39 0 0 0 0
49.743 -53.88221 30 2.3048907e-39 0 0 0 0
50.254391 -53.868385 30 2.3048907e-39 0 0 0 0
50.721203 -53.779369 30 2.3048907e-39 0 0 0 0
51.201797 -53.771755 6.3670292 2.3048907e-39 0 0 0 0
-10.633928 -53.258041 11.438696 2.3048907e-39 0 0 0 0
22.438141 -53.109688 2.4171817 2.3048907e-39 0 0 0 0
22.601383 -53.184799 2.4171817 2.3048907e-39 0 0 0 0
23.046593 -53.303082 2.4171817 2.3048907e-39 0 0 0 0
-10.667048 -52.759613 11.438696 2.3048907e-39 0 0 0 0
22.216133 -52.92572 2.4171817 2.3048907e-39 0 0 0 0
-10.703396 -52.233971 13.605697 2.3048907e-39 0 0 0 0
-10.743814 -51.727001 13.605697 2.3048907e-39 0 0 0 0
-0.58570039 -51.90844 1.2047756 2.3048907e-39 0 0 0 0
-0.36993173 -51.981819 1.2047756 2.3048907e-39 0 0 0 0
-10.767544 -51.214039 13.605697 2.3048907e-39 0 0 0 0
-0.44727662 -51.33482 1.2047756 2.3048907e-39 0 0 0 0
-10.820888 -50.81588 13.605697 2.3048907e-39 0 0 0 0
22.836348 -50.639355 2.366174 2.3048907e-39 0 0 0 0
-10.845667 -50.159695 13.605697 2.3048907e-39 0 0 0 0
-11.021031 -49.672981 13.605697 2.3048907e-39 0 0 0 0
-10.870158 -49.730644 13.605697 2.3048907e-39 0 0 0 0
-11.035141 -49.203453 13.605697 2.3048907e-39 0 0 0 0
-10.880922 -49.268143 13.605697 2.3048907e-39 0 0 0 0
-11.047174 -48.674129 13.605697 2.3048907e-39 0 0 0 0
-10.898472 -48.754349 13.605697 2.3048907e-39 0 0 0 0
-11.066149 -48.21328 14.472822 2.3048907e-39 0 0 0 0
-10.925056 -48.280319 14.472822 2.3048907e-39 0 0 0 0
22.36051 -48.101261 1.3081704 2.3048907e-39 0 0 0 0
22.691027 -48.331928 1.3081704 2.3048907e-39 0 0 0 0
-11.086411 -47.846081 14.472822 2.3048907e-39 0 0 0 0
-10.930465 -47.826942 14.472822 2.3048907e-39 0 0 0 0
22.495459 -47.964394 1.3081704 2.3048907e-39 0 0 0 0
22.747305 -47.859188 1.3081704 2.3048907e-39 0 0 0 0
-11.096642 -47.313927 14.472822 2.3048907e-39 0 0 0 0
-10.948381 -47.296364 14.472822 2.3048907e-39 0 0 0 0
45.710068 -47.093102 30 2.3048907e-39 0 0 0 0
-11.082139 -46.801334 14.472822 2.3048907e-39 0 0 0 0
-10.950599 -46.752277 14.472822 2.3048907e-39 0 0 0 0
-0.64832145 -46.822048 1.0645752 2.3048907e-39 0 0 0 0
45.675274 -46.724995 30 2.3048907e-39 0 0 0 0
-11.118263 -46.271484 14.472822 2.3048907e-39 0 0 0 0
-10.956982 -46.368633 14.472822 2.3048907e-39 0 0 0 0
-0.76895839 -46.485664 1.0645752 2.3048907e-39 0 0 0 0
45.641396 -46.24123 30 2.3048907e-39 0 0 0 0
-11.143384 -45.718498 14.472822 2.3048907e-39 0 0 0 0
-10.930037 -45.633591 14.472822 2.3048907e-39 0 0 0 0
-0.84695983 -45.75597 1.0645752 2.3048907e-39 0 0 0 0
45.491386 -45.753368 30 2.3048907e-39 0 0 0 0
45.618584 -45.724899 30 2.3048907e-39 0 0 0 0
-11.203831 -45.184238 14.472822 2.3048907e-39 0 0 0 0
45.473862 -45.231537 30 2.3048907e-39 0 0 0 0
45.591927 -45.248348 30 2.3048907e-39 0 0 0 0
-11.217432 -44.700935 14.472822 2.3048907e-39 0 0 0 0
45.464931 -44.73988 30 2.3048907e-39 0 0 0 0
45.717976 -44.789242 30 2.3048907e-39 0 0 0 0
46.183502 -44.730885 30 2.3048907e-39 0 0 0 0
46.776134 -44.682121 30 2.3048907e-39 0 0 0 0
-11.210918 -44.251343 14.472822 2.3048907e-39 0 0 0 0
-10.890416 -44.432285 14.472822 2.3048907e-39 0 0 0 0
-11.236787 -43.733639 14.365072 2.3048907e-39 0 0 0 0
-11.262114 -43.240311 14.25939 2.3048907e-39 0 0 0 0
-1.010148 -43.226929 1.206136 2.3048907e-39 0 0 0 0
22.577206 -43.401604 1.3662057 2.3048907e-39 0 0 0 0
-11.305037 -42.757324 14.058943 2.3048907e-39 0 0 0 0
22.366507 -42.552372 1.3662057 2.3048907e-39 0 0 0 0
-11.512374 -42.155396 13.926396 2.3048907e-39 0 0 0 0
-11.368067 -42.262249 13.926396 2.3048907e-39 0 0 0 0
-1.0348445 -42.227028 1.206136 2.3048907e-39 0 0 0 0
22.416782 -42.244972 1.3662057 2.3048907e-39 0 0 0 0
22.556427 -42.038143 1.3662057 2.3048907e-39 0 0 0 0
-11.378379 -41.684361 13.824403 2.3048907e-39 0 0 0 0
-1.0895098 -41.537903 1.206136 2.3048907e-39 0 0 0 0
22.487425 -41.964756 1.3662057 2.3048907e-39 0 0 0 0
22.518875 -41.994659 1.3662057 2.3048907e-39 0 0 0 0
-11.375561 -41.224487 13.729041 2.3048907e-39 0 0 0 0
22.488426 -41.117622 1.3662057 2.3048907e-39 0 0 0 0
22.526587 -41.202282 1.3662057 2.3048907e-39 0 0 0 0
-11.545202 -40.568184 13.520907 2.3048907e-39 0 0 0 0
-11.402133 -40.746128 13.520907 2.3048907e-39 0 0 0 0
-11.523293 -40.206146 13.422293 2.3048907e-39 0 0 0 0
-11.406073 -40.250767 13.422293 2.3048907e-39 0 0 0 0
22.380762 -40.266808 1.3856938 2.3048907e-39 0 0 0 0
45.348068 -40.220798 30 2.3048907e-39 0 0 0 0
-11.536273 -39.74382 13.228407 2.3048907e-39 0 0 0 0
-11.430163 -39.744072 13.228407 2.3048907e-39 0 0 0 0
-1.173929 -39.692699 1.1528219 2.3048907e-39 0 0 0 0
22.372316 -39.78912 1.3856938 2.3048907e-39 0 0 0 0
45.380608 -39.959999 30 2.3048907e-39 0 0 0 0
-11.592301 -39.296669 13.134768 2.3048907e-39 0 0 0 0
-11.444405 -39.347538 13.134768 2.3048907e-39 0 0 0 0
-1.3307139 -39.439865 1.14829 2.3048907e-39 0 0 0 0
22.315973 -39.292629 1.3856938 2.3048907e-39 0 0 0 0
-11.579103 -38.751202 13.042365 2.3048907e-39 0 0 0 0
-11.472599 -38.653263 13.042365 2.3048907e-39 0 0 0 0
22.153553 -38.605377 1.3856938 2.3048907e-39 0 0 0 0
46.379738 -38.906563 30 2.3048907e-39 0 0 0 0
46.762909 -38.821564 30 2.3048907e-39 0 0 0 0
47.817616 -38.778942 30 2.3048907e-39 0 0 0 0
48.228756 -38.722588 30 2.3048907e-39 0 0 0 0
48.833813 -38.766159 3.8825254 2.3048907e-39 0 0 0 0
49.227901 -38.740314 4.0283689 2.3048907e-39 0 0 0 0
49.799461 -38.709339 4.0283689 2.3048907e-39 0 0 0 0
50.284752 -38.670593 4.0283689 2.3048907e-39 0 0 0 0
50.705837 -38.608604 4.0283689 2.3048907e-39 0 0 0 0
51.239704 -38.558556 4.0283689 2.3048907e-39 0 0 0 0
51.701324 -38.561981 4.0283689 2.3048907e-39 0 0 0 0
52.223972 -38.532059 4.0283689 2.3048907e-39 0 0 0 0
52.711155 -38.52779 4.0283689 2.3048907e-39 0 0 0 0
53.112125 -38.518387 4.0283689 2.3048907e-39 0 0 0 0
-11.586028 -38.235939 12.960771 2.3048907e-39 0 0 0 0
-11.474836 -38.300316 12.960771 2.3048907e-39 0 0 0 0
22.228884 -38.201675 1.3856938 2.3048907e-39 0 0 0 0
51.341423 -38.485592 4.0283689 2.3048907e-39 0 0 0 0
51.764389 -38.473099 4.0283689 2.3048907e-39 0 0 0 0
52.249683 -38.4557 3.9814897 2.3048907e-39 0 0 0 0
52.730877 -38.442566 4.0347061 2.3048907e-39 0 0 0 0
53.167774 -38.42601 4.0347061 2.3048907e-39 0 0 0 0
53.766548 -38.43531 4.0347061 2.3048907e-39 0 0 0 0
54.34605 -38.296238 4.0347061 2.3048907e-39 0 0 0 0
-11.601462 -37.739086 12.784896 2.3048907e-39 0 0 0 0
-11.471409 -37.863853 12.784896 2.3048907e-39 0 0 0 0
-1.259264 -37.942448 1.2325001 2.3048907e-39 0 0 0 0
58.205406 -37.727787 11.433752 2.3048907e-39 0 0 0 0
-11.621995 -37.253654 12.693314 2.3048907e-39 0 0 0 0
-1.2550628 -37.000927 1.2325001 2.3048907e-39 0 0 0 0
22.245651 -37.319572 1.3856938 2.3048907e-39 0 0 0 0
58.141071 -37.273483 11.424231 2.3048907e-39 0 0 0 0
-11.650359 -36.74699 12.545884 2.3048907e-39 0 0 0 0
-11.459946 -36.940159 12.545884 2.3048907e-39 0 0 0 0
-1.3115792 -36.560684 1.2325001 2.3048907e-39 0 0 0 0
58.116928 -36.730103 11.322665 2.3048907e-39 0 0 0 0
-11.738957 -36.346107 12.433571 2.3048907e-39 0 0 0 0
-1.3437428 -36.362442 1.2325001 2.3048907e-39 0 0 0 0
58.079624 -36.1992 11.216725 2.3048907e-39 0 0 0 0
-11.69703 -35.699303 12.28096 2.3048907e-39 0 0 0 0
-1.3340685 -35.897499 1.2325001 2.3048907e-39 0 0 0 0
21.991283 -35.543461 1.3822027 2.3048907e-39 0 0 0 0
22.123007 -35.783916 1.3822027 2.3048907e-39 0 0 0 0
57.965458 -35.947556 8.757966 2.3048907e-39 0 0 0 0
58.080624 -35.806267 8.8093252 2.3048907e-39 0 0 0 0
-12.140924 -35.209904 12.125117 2.3048907e-39 0 0 0 0
-11.73613 -35.243313 12.125117 2.3048907e-39 0 0 0 0
21.970648 -35.22995 1.3822027 2.3048907e-39 0 0 0 0
22.013992 -35.247852 1.3822027 2.3048907e-39 0 0 0 0
57.991745 -35.403263 8.6598692 2.3048907e-39 0 0 0 0
58.237167 -35.384266 8.6598692 2.3048907e-39 0 0 0 0
58.76717 -35.349773 8.6598692 2.3048907e-39 0 0 0 0
59.166004 -35.323269 8.4595242 2.3048907e-39 0 0 0 0
59.669914 -35.306328 8.5167065 2.3048907e-39 0 0 0 0
60.797306 -35.27742 8.5167065 2.3048907e-39 0 0 0 0
61.714397 -35.263435 8.5167065 2.3048907e-39 0 0 0 0
62.078655 -35.227116 8.5167065 2.3048907e-39 0 0 0 0
-11.766698 -34.745258 12.039723 2.3048907e-39 0 0 0 0
-1.3901861 -34.742859 1.2325001 2.3048907e-39 0 0 0 0
21.931608 -34.811642 1.3984129 2.3048907e-39 0 0 0 0
22.009113 -34.917191 1.3984129 2.3048907e-39 0 0 0 0
58.055237 -34.797569 8.5685835 2.3048907e-39 0 0 0 0
-11.78749 -34.208927 11.904224 2.3048907e-39 0 0 0 0
-1.5612799 -34.054283 1.2163352 2.3048907e-39 0 0 0 0
-1.4176016 -34.059299 1.2163352 2.3048907e-39 0 0 0 0
21.900965 -34.206791 1.3984129 2.3048907e-39 0 0 0 0
-12.068935 -33.549507 11.751486 2.3048907e-39 0 0 0 0
-11.837246 -33.662342 11.751486 2.3048907e-39 0 0 0 0
-1.5250083 -33.929241 1.1761875 2.3048907e-39 0 0 0 0
57.939533 -33.729084 11.303845 2.3048907e-39 0 0 0 0
-12.043144 -33.422783 11.673697 2.3048907e-39 0 0 0 0
-11.905959 -33.273529 11.673697 2.3048907e-39 0 0 0 0
57.942757 -33.325413 11.303845 2.3048907e-39 0 0 0 0
58.038704 -33.262875 11.303845 2.3048907e-39 0 0 0 0
-12.023859 -32.586082 11.469617 2.3048907e-39 0 0 0 0
-11.88061 -32.741199 11.469617 2.3048907e-39 0 0 0 0
21.804308 -32.562603 1.3984129 2.3048907e-39 0 0 0 0
57.924107 -32.706226 11.303845 2.3048907e-39 0 0 0 0
-120.71822 -32.341507 30 2.3048907e-39 0 0 0 0
-97.111572 -32.255447 8.5000725 2.3048907e-39 0 0 0 0
-96.882744 -32.263332 8.5000725 2.3048907e-39 0 0 0 0
-96.143265 -32.206985 8.5000725 2.3048907e-39 0 0 0 0
-95.722076 -32.226154 9.3461828 2.3048907e-39 0 0 0 0
-95.349792 -32.168716 9.3461828 2.3048907e-39 0 0 0 0
-94.264221 -32.126793 9.3461828 2.3048907e-39 0 0 0 0
-93.890656 -32.14146 9.3461828 2.3048907e-39 0 0 0 0
-93.331024 -32.09766 9.3461828 2.3048907e-39 0 0 0 0
-92.650986 -32.096867 9.3461828 2.3048907e-39 0 0 0 0
-92.414024 -32.08041 9.3461828 2.3048907e-39 0 0 0 0
-91.16526 -32.027729 9.2359114 2.3048907e-39 0 0 0 0
-12.051733 -32.25946 11.410106 2.3048907e-39 0 0 0 0
-11.904432 -32.239414 11.410106 2.3048907e-39 0 0 0 0
21.916155 -32.455341 1.3984129 2.3048907e-39 0 0 0 0
57.849506 -32.041634 11.303845 2.3048907e-39 0 0 0 0
58.199223 -32.417049 11.303845 2.3048907e-39 0 0 0 0
-120.7534 -31.770134 30 2.3048907e-39 0 0 0 0
-120.38308 -31.927299 30 2.3048907e-39 0 0 0 0
-102.08168 -31.761261 30 2.3048907e-39 0 0 0 0
-92.555496 -31.978558 9.2359114 2.3048907e-39 0 0 0 0
-91.025764 -31.957069 6.4362397 2.3048907e-39 0 0 0 0
-12.045402 -31.715721 11.283122 2.3048907e-39 0 0 0 0
-11.925686 -31.748367 11.283122 2.3048907e-39 0 0 0 0
-1.541481 -31.744289 1.241331 2.3048907e-39 0 0 0 0
21.732328 -31.599537 1.4449196 2.3048907e-39 0 0 0 0
57.863892 -31.775574 11.303845 2.3048907e-39 0 0 0 0
-120.77824 -31.363678 30 2.3048907e-39 0 0 0 0
-102.61118 -31.075562 30 2.3048907e-39 0 0 0 0
-102.2498 -31.315826 30 2.3048907e-39 0 0 0 0
-80.301598 -31.293753 9.3264961 2.3048907e-39 0 0 0 0
-79.207138 -31.190878 11.282585 2.3048907e-39 0 0 0 0
-78.797729 -31.26021 23.917057 2.3048907e-39 0 0 0 0
-78.105171 -31.158396 23.936708 2.3048907e-39 0 0 0 0
-77.619263 -31.159372 23.936708 2.3048907e-39 0 0 0 0
-77.398201 -31.323673 23.936708 2.3048907e-39 0 0 0 0
-74.727196 -31.099405 14.015211 2.3048907e-39 0 0 0 0
-73.805038 -31.073807 14.015211 2.3048907e-39 0 0 0 0
-72.83004 -31.062662 13.885547 2.3048907e-39 0 0 0 0
-12.041482 -31.210218 11.179003 2.3048907e-39 0 0 0 0
-11.936855 -31.25672 11.179003 2.3048907e-39 0 0 0 0
-1.6116571 -31.208399 1.241331 2.3048907e-39 0 0 0 0
21.71623 -31.231611 1.4449196 2.3048907e-39 0 0 0 0
57.869537 -31.361555 11.303845 2.3048907e-39 0 0 0 0
-102.19318 -30.935776 30 2.3048907e-39 0 0 0 0
-74.616104 -30.96661 14.015211 2.3048907e-39 0 0 0 0
-74.282143 -30.891632 13.885547 2.3048907e-39 0 0 0 0
-73.576057 -30.945484 13.885547 2.3048907e-39 0 0 0 0
-72.701271 -30.911999 13.499372 2.3048907e-39 0 0 0 0
-72.479584 -30.895046 13.499372 2.3048907e-39 0 0 0 0
-71.643997 -30.880596 13.499372 2.3048907e-39 0 0 0 0
-69.335823 -30.755499 13.499372 2.3048907e-39 0 0 0 0
-63.190884 -30.634083 7.1403475 2.3048907e-39 0 0 0 0
-62.575783 -30.586386 12.707148 2.3048907e-39 0 0 0 0
-62.373417 -30.607023 14.437817 2.3048907e-39 0 0 0 0
-61.576946 -30.557652 14.758166 2.3048907e-39 0 0 0 0
-61.322674 -30.548714 19.777573 2.3048907e-39 0 0 0 0
-60.812889 -30.534306 19.777573 2.3048907e-39 0 0 0 0
-60.120358 -30.524206 19.777573 2.3048907e-39 0 0 0 0
-59.471676 -30.512203 14.504265 2.3048907e-39 0 0 0 0
-12.091465 -30.663979 11.013297 2.3048907e-39 0 0 0 0
-11.946695 -30.750526 11.013297 2.3048907e-39 0 0 0 0
-11.4449 -30.52944 11.013297 2.3048907e-39 0 0 0 0
-1.6341529 -30.519758 1.3094735 2.3048907e-39 0 0 0 0
21.74679 -30.884026 1.4449196 2.3048907e-39 0 0 0 0
57.841297 -30.883938 11.303845 2.3048907e-39 0 0 0 0
-78.224983 -30.164907 23.936708 2.3048907e-39 0 0 0 0
-76.413322 -30.06535 23.917057 2.3048907e-39 0 0 0 0
-63.076977 -30.431534 14.758166 2.3048907e-39 0 0 0 0
-62.140842 -30.375658 14.758166 2.3048907e-39 0 0 0 0
-61.735641 -30.381771 14.758166 2.3048907e-39 0 0 0 0
-61.311413 -30.388166 19.777573 2.3048907e-39 0 0 0 0
-60.743397 -30.396505 19.777573 2.3048907e-39 0 0 0 0
-60.201092 -30.362707 19.777573 2.3048907e-39 0 0 0 0
-59.918179 -30.377707 17.107191 2.3048907e-39 0 0 0 0
-59.26479 -30.346945 14.758166 2.3048907e-39 0 0 0 0
-58.627533 -30.315292 14.632561 2.3048907e-39 0 0 0 0
-58.319824 -30.299561 14.578947 2.3048907e-39 0 0 0 0
-57.828934 -30.272329 14.578947 2.3048907e-39 0 0 0 0
-57.403275 -30.329517 14.578947 2.3048907e-39 0 0 0 0
-56.627789 -30.225233 14.519949 2.3048907e-39 0 0 0 0
-56.088501 -30.193411 14.498785 2.3048907e-39 0 0 0 0
-55.883224 -30.17915 14.498785 2.3048907e-39 0 0 0 0
-55.308395 -30.140427 14.0762 2.3048907e-39 0 0 0 0
-54.713146 -30.116131 12.321974 2.3048907e-39 0 0 0 0
-54.140118 -30.097113 12.321974 2.3048907e-39 0 0 0 0
-53.75996 -30.073484 12.191679 2.3048907e-39 0 0 0 0
-53.346397 -30.0455 12.263275 2.3048907e-39 0 0 0 0
-52.862934 -30.061941 12.263275 2.3048907e-39 0 0 0 0
-52.276211 -30.057154 12.263275 2.3048907e-39 0 0 0 0
-51.715069 -30.043791 12.405787 2.3048907e-39 0 0 0 0
-51.131168 -30.053232 13.001808 2.3048907e-39 0 0 0 0
-50.891178 -30.087469 13.001808 2.3048907e-39 0 0 0 0
-12.064502 -30.148335 10.896791 2.3048907e-39 0 0 0 0
-11.935475 -30.149868 10.896791 2.3048907e-39 0 0 0 0
-103.61893 -29.806473 30 2.3048907e-39 0 0 0 0
-78.247253 -29.7764 23.936708 2.3048907e-39 0 0 0 0
-77.502022 -29.700691 23.936708 2.3048907e-39 0 0 0 0
-76.417236 -29.742138 23.87759 2.3048907e-39 0 0 0 0
-69.569786 -29.759207 13.302938 2.3048907e-39 0 0 0 0
-69.430328 -29.739161 13.302938 2.3048907e-39 0 0 0 0
-60.193108 -29.660194 19.777573 2.3048907e-39 0 0 0 0
-59.83094 -29.618322 19.777573 2.3048907e-39 0 0 0 0
-54.760014 -29.986864 12.321974 2.3048907e-39 0 0 0 0
-54.168499 -29.955336 12.321974 2.3048907e-39 0 0 0 0
-53.618729 -29.962717 12.321974 2.3048907e-39 0 0 0 0
-53.276676 -29.946835 12.405787 2.3048907e-39 0 0 0 0
-52.790787 -29.949709 13.001808 2.3048907e-39 0 0 0 0
-52.245659 -29.926517 13.001808 2.3048907e-39 0 0 0 0
-51.708916 -29.909418 13.001808 2.3048907e-39 0 0 0 0
-51.152393 -29.888639 13.001808 2.3048907e-39 0 0 0 0
-50.932335 -29.909575 13.001808 2.3048907e-39 0 0 0 0
-50.130978 -29.862448 13.001808 2.3048907e-39 0 0 0 0
-49.70472 -29.824516 13.001808 2.3048907e-39 0 0 0 0
-49.238251 -29.806313 14.545228 2.3048907e-39 0 0 0 0
-48.806408 -29.762283 14.545228 2.3048907e-39 0 0 0 0
-48.301476 -29.728437 14.545228 2.3048907e-39 0 0 0 0
-47.790112 -29.707352 14.545228 2.3048907e-39 0 0 0 0
-47.29982 -29.69729 14.545228 2.3048907e-39 0 0 0 0
-46.769852 -29.654837 14.545228 2.3048907e-39 0 0 0 0
-46.282112 -29.628912 14.545228 2.3048907e-39 0 0 0 0
-45.820633 -29.612331 14.545228 2.3048907e-39 0 0 0 0
-45.275307 -29.578735 14.545228 2.3048907e-39 0 0 0 0
-44.807423 -29.573635 14.466467 2.3048907e-39 0 0 0 0
-44.287144 -29.549284 14.382562 2.3048907e-39 0 0 0 0
-43.729645 -29.533169 14.287848 2.3048907e-39 0 0 0 0
-43.128185 -29.532122 14.209143 2.3048907e-39 0 0 0 0
-42.71701 -29.526041 14.037705 2.3048907e-39 0 0 0 0
-42.318668 -29.522915 13.706346 2.3048907e-39 0 0 0 0
-38.056232 -29.565641 14.639282 2.3048907e-39 0 0 0 0
-37.947269 -29.582018 14.639282 2.3048907e-39 0 0 0 0
-12.081039 -29.764236 10.779588 2.3048907e-39 0 0 0 0
-11.964907 -29.773697 10.779588 2.3048907e-39 0 0 0 0
-1.6984706 -29.80488 1.3094735 2.3048907e-39 0 0 0 0
21.453487 -29.880735 1.4449196 2.3048907e-39 0 0 0 0
21.615767 -29.8559 1.4449196 2.3048907e-39 0 0 0 0
-103.77715 -29.365839 30 2.3048907e-39 0 0 0 0
-79.594627 -29.341345 23.838064 2.3048907e-39 0 0 0 0
-78.793625 -29.061375 23.917057 2.3048907e-39 0 0 0 0
-78.261398 -29.238346 23.936708 2.3048907e-39 0 0 0 0
-77.76651 -29.247314 23.936708 2.3048907e-39 0 0 0 0
-77.246063 -29.290359 23.936708 2.3048907e-39 0 0 0 0
-76.663254 -29.308197 23.838064 2.3048907e-39 0 0 0 0
-76.349297 -29.378658 23.838064 2.3048907e-39 0 0 0 0
-74.076637 -29.039364 13.885547 2.3048907e-39 0 0 0 0
-72.424377 -29.23159 8.1432447 2.3048907e-39 0 0 0 0
-71.929398 -29.001633 13.499372 2.3048907e-39 0 0 0 0
-71.430618 -29.121811 13.499372 2.3048907e-39 0 0 0 0
-69.579147 -29.162571 13.302938 2.3048907e-39 0 0 0 0
-69.38488 -29.426863 13.302938 2.3048907e-39 0 0 0 0
-61.22728 -29.013741 19.777573 2.3048907e-39 0 0 0 0
-60.097107 -29.160898 19.777573 2.3048907e-39 0 0 0 0
-59.765549 -29.211565 19.721338 2.3048907e-39 0 0 0 0
-45.643482 -29.47658 14.382562 2.3048907e-39 0 0 0 0
-45.199379 -29.473486 14.287848 2.3048907e-39 0 0 0 0
-44.670982 -29.455568 14.209143 2.3048907e-39 0 0 0 0
-44.220272 -29.452232 14.037705 2.3048907e-39 0 0 0 0
-43.722355 -29.433611 13.943639 2.3048907e-39 0 0 0 0
-43.229267 -29.428402 13.943639 2.3048907e-39 0 0 0 0
-42.740971 -29.387367 13.943639 2.3048907e-39 0 0 0 0
-42.268555 -29.380541 13.943639 2.3048907e-39 0 0 0 0
-41.770931 -29.349485 13.856599 2.3048907e-39 0 0 0 0
-41.27417 -29.329473 13.784829 2.3048907e-39 0 0 0 0
-40.736557 -29.298861 13.706346 2.3048907e-39 0 0 0 0
-40.228939 -29.262228 13.628709 2.3048907e-39 0 0 0 0
-39.766266 -29.239908 14.639282 2.3048907e-39 0 0 0 0
-39.259697 -29.212355 14.639282 2.3048907e-39 0 0 0 0
-38.755047 -29.186836 14.639282 2.3048907e-39 0 0 0 0
-38.159988 -29.244749 14.639282 2.3048907e-39 0 0 0 0
-37.896313 -29.317684 14.639282 2.3048907e-39 0 0 0 0
-37.235527 -29.164045 14.639282 2.3048907e-39 0 0 0 0
-36.771442 -29.096386 14.639282 2.3048907e-39 0 0 0 0
-36.245937 -29.097683 14.639282 2.3048907e-39 0 0 0 0
-35.730244 -29.06459 14.639282 2.3048907e-39 0 0 0 0
-35.248993 -29.0571 14.506823 2.3048907e-39 0 0 0 0
-34.732109 -29.037926 14.403587 2.3048907e-39 0 0 0 0
-34.292603 -29.026371 14.272416 2.3048907e-39 0 0 0 0
-33.727852 -29.012615 14.209152 2.3048907e-39 0 0 0 0
-33.327881 -29.014454 13.730676 2.3048907e-39 0 0 0 0
-25.041946 -29.051582 12.11307 2.3048907e-39 0 0 0 0
-24.926661 -29.022017 12.03091 2.3048907e-39 0 0 0 0
-12.081738 -29.256407 10.61386 2.3048907e-39 0 0 0 0
-11.976508 -29.238077 10.61386 2.3048907e-39 0 0 0 0
-1.6943902 -29.300322 1.3094735 2.3048907e-39 0 0 0 0
-103.64342 -28.799175 30 2.3048907e-39 0 0 0 0
-79.25 -28.719755 23.767792 2.3048907e-39 0 0 0 0
-78.935432 -28.930691 23.917057 2.3048907e-39 0 0 0 0
-78.390022 -28.660706 23.936708 2.3048907e-39 0 0 0 0
-77.738609 -28.825779 23.936708 2.3048907e-39 0 0 0 0
-77.491814 -28.527967 23.936708 2.3048907e-39 0 0 0 0
-73.795418 -28.887356 8.6682358 2.3048907e-39 0 0 0 0
-73.223007 -28.785686 8.6682358 2.3048907e-39 0 0 0 0
-72.805153 -28.876848 8.1432447 2.3048907e-39 0 0 0 0
-72.320618 -28.889505 8.1432447 2.3048907e-39 0 0 0 0
-71.620461 -28.798948 13.499372 2.3048907e-39 0 0 0 0
-71.059097 -28.946775 13.499372 2.3048907e-39 0 0 0 0
-70.778648 -28.818542 13.499372 2.3048907e-39 0 0 0 0
-70.035309 -28.767622 13.395722 2.3048907e-39 0 0 0 0
-69.822655 -28.770815 13.302938 2.3048907e-39 0 0 0 0
-67.201614 -28.550419 5.3823719 2.3048907e-39 0 0 0 0
-66.60202 -28.521019 5.3823719 2.3048907e-39 0 0 0 0
-66.240463 -28.572226 5.3823719 2.3048907e-39 0 0 0 0
-65.854515 -28.552921 5.3402429 2.3048907e-39 0 0 0 0
-65.156754 -28.532589 5.5151997 2.3048907e-39 0 0 0 0
-64.772087 -28.658937 5.5390821 2.3048907e-39 0 0 0 0
-64.419006 -28.674356 5.5390821 2.3048907e-39 0 0 0 0
-63.66996 -28.691448 5.5390821 2.3048907e-39 0 0 0 0
-62.616291 -28.576511 19.692617 2.3048907e-39 0 0 0 0
-62.292965 -28.588316 19.747778 2.3048907e-39 0 0 0 0
-61.850349 -28.563305 19.747778 2.3048907e-39 0 0 0 0
-61.205677 -28.698481 19.777573 2.3048907e-39 0 0 0 0
-60.526184 -28.582747 19.777573 2.3048907e-39 0 0 0 0
-60.122391 -28.743248 19.777573 2.3048907e-39 0 0 0 0
-59.778919 -28.758945 19.692617 2.3048907e-39 0 0 0 0
-59.443527 -28.519714 19.692617 2.3048907e-39 0 0 0 0
-37.10038 -28.98756 14.639282 2.3048907e-39 0 0 0 0
-36.806404 -28.986311 14.506823 2.3048907e-39 0 0 0 0
-36.274315 -28.969339 14.403587 2.3048907e-39 0 0 0 0
-35.73103 -28.953672 14.272416 2.3048907e-39 0 0 0 0
-35.232944 -28.9366 14.209152 2.3048907e-39 0 0 0 0
-34.746597 -28.938278 14.13189 2.3048907e-39 0 0 0 0
-34.240955 -28.917145 14.13189 2.3048907e-39 0 0 0 0
-33.757816 -28.907804 14.13189 2.3048907e-39 0 0 0 0
-33.255028 -28.881062 14.066808 2.3048907e-39 0 0 0 0
-32.750717 -28.865889 13.999299 2.3048907e-39 0 0 0 0
-32.255905 -28.835133 13.868933 2.3048907e-39 0 0 0 0
-31.756823 -28.816835 13.730676 2.3048907e-39 0 0 0 0
-31.24469 -28.779387 13.67051 2.3048907e-39 0 0 0 0
-30.743994 -28.753122 13.53957 2.3048907e-39 0 0 0 0
-30.252895 -28.730742 13.476243 2.3048907e-39 0 0 0 0
-29.765362 -28.713375 13.35041 2.3048907e-39 0 0 0 0
-29.268564 -28.693739 13.239279 2.3048907e-39 0 0 0 0
-28.761686 -28.668762 13.119609 2.3048907e-39 0 0 0 0
-28.252861 -28.643612 13.012081 2.3048907e-39 0 0 0 0
-27.749796 -28.613462 12.955356 2.3048907e-39 0 0 0 0
-27.262863 -28.589649 12.848104 2.3048907e-39 0 0 0 0
-26.777647 -28.57172 12.751419 2.3048907e-39 0 0 0 0
-26.265736 -28.552021 12.641968 2.3048907e-39 0 0 0 0
-25.747768 -28.553398 12.547626 2.3048907e-39 0 0 0 0
-25.110779 -28.669859 12.443268 2.3048907e-39 0 0 0 0
-24.905025 -28.763432 12.350951 2.3048907e-39 0 0 0 0
-24.256145 -28.516253 12.008577 2.3048907e-39 0 0 0 0
-12.089532 -28.762474 10.50703 2.3048907e-39 0 0 0 0
-11.985384 -28.819202 10.50703 2.3048907e-39 0 0 0 0
-1.7513301 -28.759279 1.3094735 2.3048907e-39 0 0 0 0
-103.60413 -28.326447 30 2.3048907e-39 0 0 0 0
-80.051086 -28.228455 30 2.3048907e-39 0 0 0 0
-79.791405 -28.271933 23.743845 2.3048907e-39 0 0 0 0
-79.391296 -28.32737 23.743845 2.3048907e-39 0 0 0 0
-67.942459 -28.242899 5.3823719 2.3048907e-39 0 0 0 0
-67.062424 -28.182165 5.3823719 2.3048907e-39 0 0 0 0
-66.791748 -28.267761 5.5151997 2.3048907e-39 0 0 0 0
-66.269119 -28.330864 5.5151997 2.3048907e-39 0 0 0 0
-65.754234 -28.2442 5.5151997 2.3048907e-39 0 0 0 0
-65.231262 -28.198204 5.5151997 2.3048907e-39 0 0 0 0
-64.698311 -28.327627 5.5390821 2.3048907e-39 0 0 0 0
-64.318497 -28.452808 6.9834113 2.3048907e-39 0 0 0 0
-63.599106 -28.380732 6.9834113 2.3048907e-39 0 0 0 0
-63.123745 -28.282633 7.39253 2.3048907e-39 0 0 0 0
-62.739933 -28.261168 19.638386 2.3048907e-39 0 0 0 0
-62.272171 -28.313007 19.747778 2.3048907e-39 0 0 0 0
-61.720985 -28.299337 19.747778 2.3048907e-39 0 0 0 0
-61.256424 -28.199852 19.777573 2.3048907e-39 0 0 0 0
-60.727261 -28.166557 19.777573 2.3048907e-39 0 0 0 0
-60.204529 -28.244572 19.777573 2.3048907e-39 0 0 0 0
-59.815495 -28.300522 19.638386 2.3048907e-39 0 0 0 0
-59.203281 -28.224785 19.638386 2.3048907e-39 0 0 0 0
-58.852791 -28.273428 19.638386 2.3048907e-39 0 0 0 0
-28.356106 -28.452129 12.751419 2.3048907e-39 0 0 0 0
-27.129417 -28.477505 12.547626 2.3048907e-39 0 0 0 0
-26.672661 -28.483799 12.443268 2.3048907e-39 0 0 0 0
-26.221672 -28.464891 12.350951 2.3048907e-39 0 0 0 0
-25.744129 -28.452847 12.209416 2.3048907e-39 0 0 0 0
-25.213085 -28.433323 12.209416 2.3048907e-39 0 0 0 0
-24.873272 -28.467131 12.209416 2.3048907e-39 0 0 0 0
-24.163212 -28.383379 12.209416 2.3048907e-39 0 0 0 0
-23.757973 -28.371204 12.11307 2.3048907e-39 0 0 0 0
-23.256895 -28.343199 12.03091 2.3048907e-39 0 0 0 0
-22.753305 -28.31889 11.949949 2.3048907e-39 0 0 0 0
-22.250061 -28.289747 11.780396 2.3048907e-39 0 0 0 0
-21.737 -28.258856 11.753457 2.3048907e-39 0 0 0 0
-21.234121 -28.239681 11.686482 2.3048907e-39 0 0 0 0
-20.75872 -28.228046 11.544743 2.3048907e-39 0 0 0 0
-20.247173 -28.205454 11.457429 2.3048907e-39 0 0 0 0
-19.763247 -28.180172 11.358887 2.3048907e-39 0 0 0 0
-19.268414 -28.163467 11.281774 2.3048907e-39 0 0 0 0
-18.722034 -28.129776 11.17846 2.3048907e-39 0 0 0 0
-18.240633 -28.098166 11.113401 2.3048907e-39 0 0 0 0
-17.768118 -28.072504 11.012237 2.3048907e-39 0 0 0 0
-17.287943 -28.059286 10.916398 2.3048907e-39 0 0 0 0
-16.794949 -28.053972 10.817602 2.3048907e-39 0 0 0 0
-16.307453 -28.043016 10.763101 2.3048907e-39 0 0 0 0
-15.806143 -28.032558 10.671354 2.3048907e-39 0 0 0 0
-15.261566 -28.02729 10.592448 2.3048907e-39 0 0 0 0
-14.732491 -28.013657 10.251937 2.3048907e-39 0 0 0 0
-14.424461 -28.035172 10.180754 2.3048907e-39 0 0 0 0
-12.104527 -28.258039 10.278069 2.3048907e-39 0 0 0 0
-11.987327 -28.417686 10.278069 2.3048907e-39 0 0 0 0
-1.8075109 -28.462446 1.3094735 2.3048907e-39 0 0 0 0
57.710281 -28.127407 13.832167 2.3048907e-39 0 0 0 0
-79.32206 -27.809029 30 2.3048907e-39 0 0 0 0
-67.807938 -27.915756 3.5457232 2.3048907e-39 0 0 0 0
-67.129059 -27.839684 5.3823719 2.3048907e-39 0 0 0 0
-66.776726 -27.830984 5.3823719 2.3048907e-39 0 0 0 0
-66.131561 -27.718409 5.5390821 2.3048907e-39 0 0 0 0
-65.116684 -27.750565 5.5390821 2.3048907e-39 0 0 0 0
-64.983894 -27.978714 5.5390821 2.3048907e-39 0 0 0 0
-63.202744 -27.9303 19.747778 2.3048907e-39 0 0 0 0
-61.575165 -27.890543 19.747778 2.3048907e-39 0 0 0 0
-61.235241 -27.745344 19.777573 2.3048907e-39 0 0 0 0
-60.824627 -27.877808 19.777573 2.3048907e-39 0 0 0 0
-60.184216 -27.940145 19.777573 2.3048907e-39 0 0 0 0
-59.176079 -27.859837 19.574114 2.3048907e-39 0 0 0 0
-58.749474 -27.687401 19.574114 2.3048907e-39 0 0 0 0
-18.638586 -27.996122 10.916398 2.3048907e-39 0 0 0 0
-18.202768 -27.992899 10.817602 2.3048907e-39 0 0 0 0
-17.748672 -27.977629 10.763101 2.3048907e-39 0 0 0 0
-17.272015 -27.980202 10.671354 2.3048907e-39 0 0 0 0
-16.758524 -27.965637 10.592448 2.3048907e-39 0 0 0 0
-16.233814 -27.953733 10.560186 2.3048907e-39 0 0 0 0
-15.746214 -27.932138 10.560186 2.3048907e-39 0 0 0 0
-15.255336 -27.911892 10.560186 2.3048907e-39 0 0 0 0
-14.745281 -27.890911 10.511405 2.3048907e-39 0 0 0 0
-14.239324 -27.857103 10.40045 2.3048907e-39 0 0 0 0
-13.752287 -27.840382 10.336041 2.3048907e-39 0 0 0 0
-13.242851 -27.812424 10.251937 2.3048907e-39 0 0 0 0
-12.751695 -27.784576 10.180754 2.3048907e-39 0 0 0 0
-12.255573 -27.788799 10.278069 2.3048907e-39 0 0 0 0
-1.8028343 -27.505857 1.3094735 2.3048907e-39 0 0 0 0
57.660938 -27.700008 13.832167 2.3048907e-39 0 0 0 0
-79.550087 -27.251881 30 2.3048907e-39 0 0 0 0
-79.460625 -27.379171 30 2.3048907e-39 0 0 0 0
-63.237473 -27.340942 7.7817464 2.3048907e-39 0 0 0 0
-61.69508 -27.273584 19.747778 2.3048907e-39 0 0 0 0
-61.258923 -27.284552 19.747778 2.3048907e-39 0 0 0 0
-60.882423 -27.27634 19.721338 2.3048907e-39 0 0 0 0
-1.8035288 -27.282047 1.3094735 2.3048907e-39 0 0 0 0
20.765322 -27.154047 2.5082507 2.3048907e-39 0 0 0 0
21.138845 -27.038864 2.5082507 2.3048907e-39 0 0 0 0
57.605026 -27.196009 13.832167 2.3048907e-39 0 0 0 0
-79.524117 -26.761225 30 2.3048907e-39 0 0 0 0
-79.369835 -26.693356 30 2.3048907e-39 0 0 0 0
-61.02916 -26.675711 19.747778 2.3048907e-39 0 0 0 0
-1.8218347 -26.770205 1.3094735 2.3048907e-39 0 0 0 0
20.945332 -26.946415 2.5082507 2.3048907e-39 0 0 0 0
21.209291 -26.776144 2.5082507 2.3048907e-39 0 0 0 0
57.707123 -26.761192 14.061049 2.3048907e-39 0 0 0 0
58.157532 -26.688906 14.061049 2.3048907e-39 0 0 0 0
-79.586197 -26.2645 30 2.3048907e-39 0 0 0 0
-79.476532 -26.248035 30 2.3048907e-39 0 0 0 0
-61.020855 -26.252354 19.747778 2.3048907e-39 0 0 0 0
-1.8531837 -26.423771 1.2555784 2.3048907e-39 0 0 0 0
57.480904 -26.107603 12.739965 2.3048907e-39 0 0 0 0
57.543571 -26.152554 13.832167 2.3048907e-39 0 0 0 0
-79.445068 -25.677073 30 2.3048907e-39 0 0 0 0
-61.815807 -25.787226 19.747778 2.3048907e-39 0 0 0 0
-61.05275 -25.895681 19.747778 2.3048907e-39 0 0 0 0
-60.977524 -25.66601 19.574114 2.3048907e-39 0 0 0 0
-34.316093 -25.511448 1.0276039 2.3048907e-39 0 0 0 0
-1.9006053 -25.944277 1.2555784 2.3048907e-39 0 0 0 0
57.479546 -25.701706 12.739965 2.3048907e-39 0 0 0 0
57.53508 -25.779354 13.832167 2.3048907e-39 0 0 0 0
-79.264961 -25.323345 30 2.3048907e-39 0 0 0 0
-61.755276 -25.213427 8.2996655 2.3048907e-39 0 0 0 0
-61.060646 -25.286844 19.56208 2.3048907e-39 0 0 0 0
-34.426128 -25.362486 1.0276039 2.3048907e-39 0 0 0 0
-27.908447 -25.079021 1.2098905 2.3048907e-39 0 0 0 0
21.260765 -25.1343 2.5082507 2.3048907e-39 0 0 0 0
57.467335 -25.232651 12.739965 2.3048907e-39 0 0 0 0
57.525101 -25.297192 13.832167 2.3048907e-39 0 0 0 0
-61.633606 -24.89525 8.2996655 2.3048907e-39 0 0 0 0
-61.12616 -24.7658 8.4627342 2.3048907e-39 0 0 0 0
-24.660824 -24.779554 1.0572243 2.3048907e-39 0 0 0 0
-24.490873 -24.815205 1.0572243 2.3048907e-39 0 0 0 0
-18.019945 -24.549568 1.2063656 2.3048907e-39 0 0 0 0
21.262863 -24.872032 2.5082507 2.3048907e-39 0 0 0 0
26.891596 -24.659382 30 2.3048907e-39 0 0 0 0
27.083313 -24.596088 30 2.3048907e-39 0 0 0 0
57.453201 -24.760426 12.726753 2.3048907e-39 0 0 0 0
57.512581 -24.791115 13.832167 2.3048907e-39 0 0 0 0
-18.116856 -24.456053 1.2063656 2.3048907e-39 0 0 0 0
-17.950783 -24.398104 1.2063656 2.3048907e-39 0 0 0 0
-14.782754 -24.417501 1.297972 2.3048907e-39 0 0 0 0
-11.586135 -24.141438 1.302719 2.3048907e-39 0 0 0 0
-11.445819 -24.199835 1.302719 2.3048907e-39 0 0 0 0
21.214258 -24.114004 1.4660821 2.3048907e-39 0 0 0 0
22.259726 -24.07337 1.3257236 2.3048907e-39 0 0 0 0
25.360458 -24.14398 30 2.3048907e-39 0 0 0 0
25.738205 -24.045557 30 2.3048907e-39 0 0 0 0
26.231003 -24.128378 30 2.3048907e-39 0 0 0 0
26.859585 -24.239872 30 2.3048907e-39 0 0 0 0
27.252689 -24.148056 30 2.3048907e-39 0 0 0 0
27.861494 -24.095573 30 2.3048907e-39 0 0 0 0
28.324701 -24.153112 30 2.3048907e-39 0 0 0 0
28.543659 -24.204138 30 2.3048907e-39 0 0 0 0
